ply
format ascii 1.0
comment Created by Open3D
element vertex 715
property double x
property double y
property double z
property double nx
property double ny
property double nz
property uchar red
property uchar green
property uchar blue
end_header
-77.5558 34.511 -240.558 0.274159 0.00245568 0.961681 253 253 253
-67.3881 61.9246 -245.444 0.333327 0.00370973 0.942804 244 244 244
-77.5645 28.5636 -240.581 0.250152 0.00838875 0.96817 254 254 254
-77.5307 22.6043 -240.489 0.282768 0.00365261 0.959181 252 252 252
-77.5318 19.6301 -240.492 0.28439 0.00863168 0.95867 250 250 250
1.00847 43.0824 -66.8389 0.0310196 0.115689 0.992801 127 127 127
-24.3175 52.2256 -260.668 -0.400507 -0.0544027 -0.914677 248 248 248
-77.5178 13.6794 -240.453 0.267455 -0.0106599 0.963511 252 252 252
-75.2148 37.4988 -240.639 0.382792 0.0139612 0.923729 255 255 255
-0.877984 1.77198 -95.4748 -0.632735 0.109645 0.766567 219 219 219
-77.5252 10.7065 -240.473 0.291803 -0.00622181 0.956458 251 251 251
-9.94244 -33.1528 -89.9545 0.0738683 0.0639136 -0.995218 181 181 181
-77.5331 7.73328 -240.495 0.294718 -9.05844e-05 0.955584 250 250 250
-73.3927 -1.49764 -242.19 0.388596 0.0254725 0.921056 254 254 254
-38.38 7.56368 -254.826 0.480847 0.0616476 0.874635 252 252 252
-77.5251 1.78435 -240.473 0.287994 -0.00157031 0.957631 253 253 253
-41.7323 4.71708 -254.273 0.225151 -0.00457474 0.974313 254 254 254
-58.375 -1.21965 -246.552 0.263972 0.00529939 0.964516 251 251 251
-9.52564 49.0647 -71.4559 -0.434164 -0.403226 0.80555 114 114 114
134.151 -13.1997 -323.424 0.353588 -0.00327812 0.935396 235 235 235
-53.2455 -33.5084 -249.948 -0.50362 -0.0172848 -0.863752 252 252 252
-77.5207 -10.1112 -240.461 0.277066 0.000563026 0.960851 253 253 253
15.5803 -49.2324 -85.1543 -0.114504 -0.0121802 0.993348 156 156 156
9.60946 13.4969 -96.74 -0.0932236 0.679831 0.727419 214 214 214
-77.5216 -13.0853 -240.464 0.262957 0.00918015 0.964764 251 251 251
6.89433 20.8284 -118.601 -0.0234952 0.99968 0.00938078 9 9 9
-47.2679 -31.1609 -252.52 0.297074 0.00322043 0.954849 254 254 254
-77.516 -16.0581 -240.448 0.248439 0.0126429 0.968565 252 252 252
33.2329 -55.2462 -82.4191 -0.16307 0.0228888 0.986349 133 133 133
-28.7555 -35.9197 -259.319 -0.416607 0.0234631 -0.908784 247 247 247
-77.5046 -24.976 -240.417 0.289346 -0.00614239 0.957205 252 252 252
-50.4223 43.5764 -251.677 0.395253 -0.0120872 0.918493 250 250 250
-77.5049 -28.2469 -240.418 0.274385 0.0175205 0.96146 255 255 255
111.544 43.6758 -312.521 0.372483 8.73989e-05 -0.928039 236 236 236
-17.7108 -36.5197 -263.651 -0.588978 -0.414086 -0.694001 244 244 244
-77.5112 -31.5198 -240.435 0.25626 0.0187326 0.966426 252 252 252
-73.4741 58.7645 -242.426 0.322331 0.0169953 0.946474 243 243 243
108.865 -10.4704 -313.561 -0.308825 0.0866557 -0.947163 243 243 243
118.111 -31.2863 -316.215 -0.135682 0.0144873 0.990647 230 230 230
-2.52794 34.8874 -78.6957 -0.281048 -0.713662 0.641638 177 177 177
-77.4999 -34.4889 -240.404 0.229985 -0.000610835 0.973194 253 253 253
-35.2629 -19.9941 -124.359 -0.00499234 0.999987 0.000324416 131 131 131
-26.4839 -19.9374 -132.688 0.000599963 -0.999997 -0.00253359 136 136 136
-32.6236 -19.9467 -120.361 0.00163056 -0.999991 0.00379741 133 133 133
-29.3691 -19.9351 -111.171 -0.000328196 -1 -0.000785138 143 143 143
-23.6119 -19.9424 -114.205 -0.000708326 -1 -0.000135497 140 140 140
-26.3704 -19.9409 -102.703 -0.000297301 -0.999999 -0.00108567 143 143 143
-15.4297 51.8325 -73.6788 -0.0996792 -0.0826217 0.991583 127 127 127
-14.9989 49.7137 -73.3872 -0.101432 -0.314569 0.9438 144 144 144
35.4813 -49.2223 -82.0618 0.152557 -0.0142068 -0.988192 152 152 152
-73.3882 -10.1834 -242.177 0.386633 -3.5591e-05 0.922233 254 254 254
-71.469 76.4869 -243.485 0.428131 -0.00832461 0.903678 230 230 230
-15.6122 47.428 -73.532 0.122907 -0.270351 0.954884 162 162 162
32.3456 46.6343 -73.0891 -0.406552 0.455763 -0.791831 168 168 168
-19.7345 41.427 -85.0747 0.65712 0.560396 -0.504133 142 142 142
-21.6268 39.9839 -89.8059 0.678207 0.592435 -0.434806 139 139 139
-11.6105 -19.9665 -102.927 -0.000728901 -1 0.000185762 146 146 146
-22.5521 39.1084 -91.9243 0.678065 0.612494 -0.406299 134 134 134
-78.5629 97.121 -250.094 0.839837 0.542766 -0.0088657 188 188 188
-76.8214 94.6048 -245.176 0.783806 0.591122 0.190324 220 220 220
12.8853 -49.4349 -85.5967 -0.116945 -0.0424737 0.99223 159 159 159
31.1191 48.5848 -71.2968 -0.410717 0.417964 -0.810319 156 156 156
104.765 -43.3175 -309.961 -0.221851 0.0340747 -0.974485 230 230 230
141.157 13.6501 -324.624 0.123792 -0.00265013 -0.992305 236 236 236
-75.3154 82.8332 -240.923 0.360777 -0.00831 0.932615 229 229 229
-53.414 52.7426 -250.208 0.510246 0.00448361 0.860017 246 246 246
-73.3831 10.1828 -242.162 0.382609 -0.00818708 0.923874 254 254 254
-75.3338 79.8708 -240.975 0.375789 0.00978496 0.926654 230 230 230
-75.3028 73.8835 -240.888 0.363012 0.0111333 0.931718 235 235 235
-11.5689 -52.3773 -89.4614 -0.343987 -0.106777 0.932884 163 163 163
-20.459 -31.2333 -90.958 -0.153349 0.00167116 0.988171 218 218 218
-5.57754 -64.2816 -88.3321 -0.167756 0.0513321 0.984491 120 120 120
-75.3148 70.9143 -240.922 0.393464 0.00416623 0.919331 238 238 238
31.9848 5.07836 -108.059 0.876985 0.276835 0.392759 110 110 110
-75.2847 55.9965 -240.837 0.386716 -0.000654572 0.922198 249 249 249
-75.258 47.0462 -240.761 0.384769 -0.0263063 0.922638 254 254 254
-75.2817 50.0377 -240.828 0.382168 -0.0315105 0.923556 252 252 252
-67.3637 46.732 -245.366 0.33233 0.042515 0.942204 249 249 249
9.50504 -19.4234 -105.237 -0.0875642 -0.97342 0.211628 136 136 136
-75.2528 43.7681 -240.746 0.380958 0.0127399 0.924505 255 255 255
-18.4369 33.5994 -96.0014 0.593039 0.743192 -0.309791 149 149 149
6.43051 25.1166 -90.5817 -0.0998748 -0.899532 0.425284 201 201 201
121.824 37.8822 -315.781 -0.196231 0.0901998 -0.9764 232 232 232
-75.2496 40.4915 -240.737 0.383436 0.0209794 0.923329 255 255 255
-74.5077 19.4596 -241.151 0.427013 0.0244527 0.903915 254 254 254
-1.09764 36.2222 -70.0678 0.114564 0.892742 -0.43576 114 114 114
-74.5048 13.7937 -241.144 0.427071 -0.025089 0.90387 253 253 253
-74.378 10.8078 -241.251 0.421094 -0.029363 0.906542 252 252 252
24.4282 -52.2415 -83.8512 -0.158984 0.0107519 0.987223 144 144 144
-14.4993 -19.9335 -99.5012 0.000368711 -1 0.000475391 142 142 142
-74.3695 7.69019 -241.227 0.41958 0.0226529 0.907436 252 252 252
35.4537 -55.2526 -81.9742 0.182428 -0.0443025 -0.982221 136 136 136
-14.6855 -19.9393 -130.019 -0.0019593 -0.999997 -0.0015104 135 135 135
30.2971 -25.2348 -82.944 -0.148998 0.0392083 0.98806 225 225 225
-74.3789 4.77394 -241.254 0.421778 0.023903 0.906384 253 253 253
98.5767 -30.9452 -308.904 0.593206 0.00169867 0.805049 239 239 239
-74.4994 -6.93259 -241.129 0.427637 -0.0128482 0.903859 253 253 253
-74.4903 -10.1381 -241.103 0.427605 -0.00358378 0.903958 253 253 253
0.359646 -19.9446 -102.816 0.308707 -0.947388 0.0845971 143 143 143
-56.5176 58.9476 -248.247 0.298175 0.00295777 0.954507 245 245 245
9.26695 33.5439 -77.5319 -0.0326784 -0.734441 0.677886 198 198 198
-74.2593 -16.1142 -241.287 0.420283 -0.00485349 0.90738 253 253 253
-32.7071 -19.9499 -123.331 0.00396745 -0.999992 0.000612075 137 137 137
115.935 25.3208 -316.605 0.133387 -0.00403668 -0.991056 240 240 240
-74.3835 -21.9475 -241.267 0.416729 -0.0250915 0.908685 253 253 253
-74.2507 -31.3289 -241.263 0.425913 0.00935747 0.904716 253 253 253
-74.2571 -34.3154 -241.281 0.415997 0.00618155 0.909345 252 252 252
-29.6856 -19.9556 -114.605 0.000643977 -1 0.000690217 143 143 143
35.5321 -43.2491 -82.1825 0.14124 -0.00971897 -0.989928 171 171 171
102.468 67.5621 -312.166 0.296139 -0.0311568 0.954637 232 232 232
-15.218 33.8476 -90.1157 -0.547683 -0.732462 0.404405 160 160 160
-23.6755 -19.97 -99.6841 -0.000645079 -0.999999 -0.00104776 144 144 144
-17.6627 -49.2359 -90.5414 -0.148236 0.011956 0.98888 176 176 176
-14.6698 46.597 -75.4824 0.0554127 -0.478493 0.876341 162 162 162
-16.9908 41.3666 -81.9955 -0.58566 -0.649605 0.484784 145 145 145
-74.841 91.8012 -249.942 0.806444 0.59068 0.027311 198 198 198
-73.5251 88.501 -242.575 0.635387 0.135813 0.760156 219 219 219
-73.4846 85.7594 -242.457 0.441076 0.222815 0.869371 220 220 220
-73.4856 76.7648 -242.46 0.31582 -0.0111673 0.948754 230 230 230
51.1003 -19.9394 -117.69 4.18604e-05 0.999998 0.00207588 139 139 139
6.79664 -55.637 -86.5737 -0.158826 0.0084764 0.98727 142 142 142
-23.6213 -19.9395 -121.229 0.000344142 -1 -0.000842223 139 139 139
-73.4685 70.7528 -242.41 0.320431 -0.0164488 0.947129 239 239 239
-68.9749 73.9485 -243.06 0.256548 -0.0344085 0.965919 235 235 235
24.8256 -19.9342 -120.74 0.0200305 0.99953 0.0232259 141 141 141
-73.4737 67.759 -242.425 0.31888 -0.00364554 0.947788 241 241 241
0.397688 -22.2232 -87.6542 -0.132624 0.327916 0.935351 236 236 236
-73.4289 61.7295 -242.295 0.323833 -0.0183997 0.945935 244 244 244
-20.4 -43.2153 -90.9142 -0.144163 0.00627132 0.989534 189 189 189
-73.4436 49.752 -242.338 0.315887 -0.0103291 0.948741 251 251 251
26.4209 1.45634 -98.1272 0.70057 0.0654459 0.710577 217 217 217
-20.4512 -40.2225 -90.935 -0.152877 0.00185343 0.988243 195 195 195
-58.4251 34.7864 -246.733 0.238967 -0.0561012 0.969406 253 253 253
82.9697 59.0159 -303.941 0.454125 -0.118358 0.883041 238 238 238
21.6138 37.4798 -75.3371 0.219639 -0.651898 0.725802 194 194 194
-73.4342 43.7529 -242.31 0.318996 0.0248802 0.947429 253 253 253
-73.4284 40.7531 -242.294 0.330915 0.00576213 0.943643 255 255 255
111.552 70.737 -312.545 0.444713 -0.00289549 -0.895669 228 228 228
-50.4325 40.7823 -251.719 0.398057 0.00249267 0.917357 250 250 250
-68.6196 28.5686 -243.176 0.24531 0.0399349 0.968622 251 251 251
-73.4151 29.6611 -242.255 0.347292 -0.000736874 0.937757 254 254 254
116.072 79.9816 -317.015 0.118921 0.0867798 -0.989104 225 225 225
-73.4012 21.8677 -242.215 0.367489 0.00201982 0.930026 252 252 252
15.5893 -22.2566 -85.2896 -0.107376 0.356767 0.928002 235 235 235
-64.7164 73.7476 -244.386 0.506245 -0.0266679 0.861978 235 235 235
33.4707 -19.9475 -102.83 0.00095088 -1 0.000152922 143 143 143
-73.4441 20.68 -242.339 0.371746 -0.00193619 0.928332 252 252 252
-41.7541 52.8532 -254.38 0.265524 0.0195411 0.963906 255 255 255
-73.4854 8.39609 -242.459 0.372537 -0.00839758 0.927979 254 254 254
-73.3886 -8.08684 -242.178 0.384524 0.00731064 0.923086 254 254 254
98.6686 49.7162 -309.224 0.595795 0.00555524 0.803117 239 239 239
-73.3816 -28.7508 -242.158 0.39436 0.0110177 0.91889 254 254 254
-2.97853 27.5437 -89.8058 -0.297753 -0.856867 0.42086 189 189 189
-50.4213 25.5229 -251.673 0.398468 -0.00737741 0.917152 250 250 250
-29.7008 -19.9577 -117.968 0.000986754 -0.999998 0.0017995 142 142 142
21.4768 -49.2265 -84.237 -0.154087 -0.00287122 0.988053 153 153 153
-56.4644 7.97619 -248.049 0.430686 -0.00957655 0.902451 250 250 250
-20.6325 -19.9571 -93.7181 -0.0651841 -0.942265 -0.328462 144 144 144
-61.1594 41.7403 -248.162 0.316322 0.115073 0.941647 251 251 251
-20.4395 -22.2753 -90.9659 -0.145847 0.260628 0.954359 234 234 234
-20.4031 -52.2507 -90.7916 -0.16063 0.00168215 0.987013 166 166 166
88.4646 6.51891 -292.834 0.965926 1.14256e-09 0.258819 217 217 217
-8.11296 26.7128 -97.0577 -0.399252 -0.879888 0.257671 169 169 169
9.62738 32.2447 -78.9694 -0.0182001 -0.763281 0.64581 201 201 201
-20.4243 -61.2453 -90.9206 -0.161535 0.00929176 0.986823 140 140 140
98.616 -25.2257 -309.041 0.593112 0.00748923 0.805085 238 238 238
-15.0353 43.621 -78.4894 -0.269775 -0.760741 0.590334 147 147 147
-5.84482 -19.9386 -111.344 -0.00114304 -0.999999 -0.000664798 142 142 142
-18.9339 39.4631 -86.4744 0.627526 0.615046 -0.477419 147 147 147
126.138 -25.2562 -319.086 0.592676 0.00496265 0.805426 238 238 238
-47.1837 28.7545 -252.719 0.290326 0.000735585 0.956927 253 253 253
-58.3851 -7.31908 -246.589 0.264303 0.000610784 0.964439 251 251 251
0.471819 -27.2658 -87.3022 0.196631 -0.637703 -0.744763 186 186 186
30.5019 -19.9561 -105.468 -0.000743408 -0.999997 -0.00224437 145 145 145
-72.275 88.1914 -245.894 0.739033 0.631295 0.235152 224 224 224
-67.3159 22.4418 -245.215 0.283241 -0.060111 0.957163 252 252 252
-71.5025 85.5559 -243.585 -0.553878 -0.278695 -0.784569 223 223 223
-68.2683 -22.2947 -243.607 0.188523 0.00901368 0.982027 252 252 252
117.895 20.2137 -316.334 -0.137001 -0.00078004 0.990571 236 236 236
-71.4748 73.4808 -243.503 0.427854 -0.0248779 0.903506 233 233 233
-71.4784 70.4724 -243.513 0.427598 -0.0245082 0.903637 238 238 238
23.9008 -15.279 -105.587 0.541277 -0.415884 0.730793 145 145 145
-71.4514 55.998 -243.432 0.43024 0.0322504 0.902138 244 244 244
1.71013 -6.09373 -94.7537 -0.493079 -0.293856 0.818854 226 226 226
-29.8198 19.8388 -258.727 0.477653 -0.0601526 0.876487 253 253 253
-19.924 -34.4306 -262.639 0.573255 0.370595 0.730779 246 246 246
-71.4296 40.9337 -243.367 0.438572 0.00117333 0.898695 252 252 252
32.8685 41.1805 -76.5877 0.297305 -0.366345 0.881704 175 175 175
108.899 43.8356 -313.666 -0.364947 0.0241641 -0.930715 236 236 236
130.563 43.4693 -322.461 -0.442473 0.0373712 -0.896003 236 236 236
-71.4116 25.8789 -243.314 0.417246 -0.0204393 0.908564 253 253 253
-71.4057 19.8591 -243.296 0.414552 0.0113457 0.909955 253 253 253
-35.4922 19.7829 -257.999 0.462021 0.00146777 0.886868 254 254 254
3.55592 35.4024 -76.2811 -0.0558518 -0.882657 0.466687 185 185 185
-71.3913 13.8388 -243.253 0.410969 -0.023657 0.911342 254 254 254
-71.3804 4.81282 -243.22 0.409575 0.00805768 0.912241 252 252 252
-2.6879 -19.9468 -105.517 0.00064669 -1 6.58428e-06 142 142 142
-8.60898 -19.9401 -111.198 0.000212646 -0.999999 -0.00112932 142 142 142
-54.5903 69.8069 -249.752 -0.657883 -0.308897 -0.686857 235 235 235
-32.8491 -1.17083 -258.377 0.245875 0.0335557 0.968721 253 253 253
-71.3924 -1.20335 -243.256 0.417467 -0.014561 0.908576 252 252 252
-61.1728 44.5109 -248.209 0.304841 0.0602866 0.950493 253 253 253
-71.3903 -7.22019 -243.25 0.420421 -0.00940559 0.90728 251 251 251
-71.3905 -10.2286 -243.251 0.408304 0.00543223 0.91283 252 252 252
-71.3797 -25.2672 -243.218 0.394512 0.0188938 0.918697 254 254 254
29.1374 -7.02534 -103.256 0.787974 -0.362432 0.497735 170 170 170
-32.4176 -19.9283 -129.258 7.99327e-05 -0.999995 -0.00303571 137 137 137
134.157 16.8006 -323.441 0.338061 -0.00131151 0.941123 235 235 235
-26.5665 -19.92 -114.238 -0.000133151 -1 0.000334156 140 140 140
-69.1252 84.3291 -243.522 -0.467765 -0.252463 -0.847029 225 225 225
21.3629 -19.9502 -93.9038 0.000318182 -1 -0.000406084 146 146 146
21.5788 24.7839 -93.3245 0.209348 -0.900583 0.38095 204 204 204
-68.9252 82.6137 -242.907 -0.324565 -0.0818061 -0.942319 227 227 227
-68.9504 70.9205 -242.984 0.252399 0.0103706 0.967568 236 236 236
-68.95 67.9149 -242.983 0.258619 -0.00158653 0.965978 240 240 240
-68.9145 52.8657 -242.874 0.266709 0.00562517 0.963761 248 248 248
3.87245 -15.8686 -102.633 0.276934 0.514648 -0.811446 153 153 153
-68.9132 46.8574 -242.87 0.267341 0.00946591 0.963556 251 251 251
-3.15594 -56.508 -88.0124 0.183119 -0.0462328 -0.982003 147 147 147
-68.9098 43.8518 -242.859 0.267285 0.031197 0.963113 253 253 253
79.8051 35.5246 -302.359 -0.375877 -0.0136095 -0.92657 243 243 243
-68.9022 40.8444 -242.836 0.26499 0.0100158 0.964199 252 252 252
-68.6434 38.0066 -243.249 0.259584 -0.0596398 0.963877 252 252 252
141.164 -13.2496 -324.642 0.168938 -0.0198815 -0.985426 234 234 234
126.176 46.9758 -319.191 0.597113 0.00618836 0.802133 235 235 235
-68.4458 35.0206 -243.505 0.261548 -0.0499858 0.963895 251 251 251
150.586 64.6424 -339.404 0.923879 1.58596e-09 0.382684 227 227 227
-45.6759 64.7894 -261.935 0 0 1 196 196 196
-68.2851 25.8398 -243.658 0.232536 0.0507795 0.971261 252 252 252
76.6863 -31.4366 -288.85 0 0 1 165 165 165
-50.3813 -7.46516 -251.506 0.392358 -0.00354358 0.919806 250 250 250
-68.4256 23.1417 -243.443 0.250354 -0.0414982 0.967264 250 250 250
-68.2816 20.0393 -243.648 0.256255 0.0378579 0.965868 252 252 252
-38.3835 13.8678 -254.845 0.481597 -0.0613425 0.874243 251 251 251
20.5823 47.7726 -67.9593 0.189723 -0.42794 0.88367 146 146 146
-68.6045 16.9397 -243.13 0.24064 0.00414776 0.970606 252 252 252
-68.4092 14.1066 -243.393 0.238663 0.0181989 0.970932 253 253 253
38.9855 -19.9109 -120.752 -0.00093133 -0.999998 0.00149794 141 141 141
-47.3065 19.8619 -252.691 0.305456 0.00649142 0.952184 253 253 253
-68.4142 10.9238 -243.408 0.23736 0.00873513 0.971382 252 252 252
-68.0731 7.84312 -243.913 0.227684 -0.000977299 0.973734 251 251 251
-68.2755 4.82087 -243.629 0.211995 -0.0292484 0.976833 252 252 252
-68.1658 1.67437 -243.795 0.220122 0.0220693 0.975223 253 253 253
-68.0677 -7.23926 -243.896 0.207888 0.0064633 0.978131 253 253 253
25.0678 -14.0233 -104.985 0.615457 -0.584029 0.529266 146 146 146
89.4033 31.5166 -307.03 0.0681825 -0.0281044 0.997277 243 243 243
-68.0642 -16.2876 -243.885 0.131085 0.000564321 0.991371 252 252 252
-58.4034 22.5736 -246.655 0.266749 0.0587875 0.961971 253 253 253
-68.0591 -19.3026 -243.869 0.147124 -0.0476124 0.987971 252 252 252
6.79398 -1.24935 -91.7766 -0.170839 -0.0623089 0.983327 250 250 250
138.092 49.8685 -325.18 0.188629 0.0343483 0.981448 231 231 231
-38.3644 -28.3549 -254.744 0.461369 0.0548363 0.885512 250 250 250
-9.7765 -58.2701 -89.206 -0.143771 0.019362 0.989422 146 146 146
-68.0696 -25.3381 -243.902 0.221019 -0.0312661 0.974768 252 252 252
-9.77431 -60.7604 -89.1961 -0.150716 0.0325949 0.98804 135 135 135
-68.0599 -31.3671 -243.871 0.154555 0.023688 0.9877 253 253 253
-41.7077 -13.5158 -254.151 0.240388 -0.00659224 0.970654 255 255 255
-68.1583 -34.2345 -243.772 -0.138984 -0.129333 -0.981813 251 251 251
-56.4364 -16.2521 -247.944 0.435629 0.00954898 0.900076 249 249 249
18.8171 -13.844 -98.9959 0.339342 -0.68394 0.645812 197 197 197
-29.7232 -19.9533 -123.478 0.00405133 -0.999992 -0.000257827 140 140 140
-26.542 -19.9393 -117.687 0.000146778 -1 -2.52206e-05 137 137 137
-23.6096 -19.9456 -108.243 0.000266927 -0.999999 0.00142398 142 142 142
-20.5942 -19.947 -99.4468 -0.00182399 -0.999997 -0.00136945 144 144 144
-17.9754 -69.3984 -88.7187 -0.0624945 0.343628 0.937024 105 105 105
29.8587 -1.13796 -102.164 0.818316 -0.0371351 0.573568 186 186 186
117.879 -1.04292 -316.287 -0.123956 -0.00677864 0.992265 234 234 234
-11.9036 51.5548 -71.6252 0.323626 0.155156 -0.933377 111 111 111
-14.9492 40.2126 -81.2402 -0.527316 -0.621535 0.579338 150 150 150
111.555 16.6216 -312.555 -0.377836 -0.0077687 -0.92584 241 241 241
150.594 25.6067 -339.425 0.92388 6.13926e-09 0.382683 229 229 229
-53.5209 49.8022 -250.12 0.522015 0.00398203 0.852927 248 248 248
-17.3789 35.1072 -90.9105 -0.593607 -0.706261 0.385778 152 152 152
-14.5752 -34.2303 -90.0145 -0.125876 -0.00491557 0.992034 210 210 210
-19.4178 34.5378 -95.4761 0.597348 0.72804 -0.336354 145 145 145
-67.5056 82.0842 -245.816 -0.616085 -0.167226 -0.769724 229 229 229
121.992 65.7095 -316.256 -0.330731 -0.041067 -0.942831 231 231 231
-67.4001 76.8103 -245.482 0.388732 0.128716 0.912315 234 234 234
-56.4454 -33.4288 -247.977 -0.409834 0.136994 -0.901814 247 247 247
15.6507 36.7937 -74.6475 0.109511 -0.666461 0.737453 190 190 190
-67.3628 74.0423 -245.363 0.315413 0.0126458 0.94887 235 235 235
-67.3666 55.8381 -245.375 0.357582 0.00612013 0.933862 247 247 247
130.525 16.7445 -322.36 0.436209 -0.00630764 0.899823 236 236 236
150.586 13.8521 -339.405 0.923879 1.82503e-10 0.382684 231 231 231
-0.671087 12.0543 -101.529 0.580341 -0.602024 -0.548427 171 171 171
-50.4018 31.7379 -251.592 0.401556 0.0062154 0.915813 250 250 250
66.4917 43.1315 -290.625 0.646148 0.687874 0.330639 223 223 223
-67.3603 49.7646 -245.356 0.334664 -0.0125277 0.942254 249 249 249
10.3755 -22.2469 -86.0681 -0.173631 0.36801 0.913466 234 234 234
-35.4688 -28.0646 -257.867 0.461112 0.0703981 0.884545 253 253 253
-67.3601 43.6957 -245.355 0.338842 0.0367264 0.940126 250 250 250
-56.4874 37.7462 -248.134 0.4306 0.00520853 0.902528 250 250 250
79.731 -43.7047 -302.038 -0.371988 0.00666036 -0.928214 236 236 236
-67.3472 40.6544 -245.314 0.313563 -0.0110024 0.949504 251 251 251
138.147 64.7763 -325.319 0.18968 0.0114278 0.981779 231 231 231
-56.4696 16.567 -248.068 0.432196 0.0159704 0.901638 251 251 251
-67.3181 33.967 -245.222 0.338776 0.0126942 0.940781 250 250 250
9.59361 7.70848 -92.9921 -0.0426858 0.408319 0.911841 246 246 246
18.5333 -40.2463 -84.7452 -0.0947692 0.0088438 0.99546 180 180 180
-8.47927 -64.2687 -88.8319 -0.176495 0.0561084 0.982701 125 125 125
-67.3211 31.5422 -245.231 0.302996 0.0497686 0.951691 252 252 252
-33.194 49.7993 -258.117 0.123128 0.00445571 0.992381 248 248 248
-67.3146 28.81 -245.211 0.307598 0.0204569 0.951296 250 250 250
-67.3193 25.4757 -245.226 0.296374 0.00392966 0.955064 250 250 250
-47.2996 4.86062 -252.66 0.305576 0.00267909 0.952164 254 254 254
-67.2995 19.4051 -245.163 0.294351 0.0235536 0.955407 251 251 251
-17.6403 -19.9346 -138.953 -0.00174354 -0.999981 0.00598818 136 136 136
-67.3069 16.8295 -245.186 0.298588 0.0395323 0.953563 250 250 250
-50.3922 16.7997 -251.552 0.400302 0.012383 0.916299 250 250 250
141.179 2.00744 -324.678 0.12551 -0.00751997 -0.992064 235 235 235
28.8309 4.9031 -101.602 0.783341 0.23744 0.574455 189 189 189
-67.3031 10.7137 -245.174 0.285934 -0.0489169 0.957 251 251 251
27.3019 -52.2311 -83.2997 -0.161401 0.00747441 0.986861 146 146 146
-35.5159 37.671 -258.134 0.447038 -0.041965 0.89353 255 255 255
-67.3113 3.0325 -245.2 0.325373 -0.0181869 0.945411 251 251 251
111.51 -31.2966 -312.414 0.38634 -0.0076277 -0.922325 236 236 236
-41.7249 22.6387 -254.236 0.221439 -0.00440398 0.975164 253 253 253
12.6838 -20.2828 -85.7334 -0.187292 0.657614 0.729702 229 229 229
-29.8395 -19.9332 -138.943 0.00115615 -0.999999 0.00101512 133 133 133
104.813 4.98593 -310.12 -0.230791 0.122489 -0.965263 239 239 239
-67.3005 -1.21283 -245.166 0.279848 0.00914306 0.960001 250 250 250
-67.3048 -4.8516 -245.18 0.281811 -0.00750198 0.959441 250 250 250
-26.6422 37.7266 -260.723 0.457029 -0.0117333 0.889374 252 252 252
-43.9316 19.7692 -253.728 0.24541 0.00104141 0.969419 250 250 250
-67.3077 -22.4396 -245.189 0.278833 0.0178078 0.960174 253 253 253
-1.21572 42.3567 -67.0225 0.382376 -0.19425 -0.903358 108 108 108
-67.3014 -29.7147 -245.169 0.322857 -0.00546577 0.946432 250 250 250
-29.7459 -19.936 -129.998 -0.00345584 -0.999994 3.45854e-05 136 136 136
-23.4668 -19.9408 -111.203 2.73424e-05 -0.999998 -0.00183272 141 141 141
-17.6702 -20.1958 -90.8527 -0.0551888 0.722969 0.688672 217 217 217
-17.7203 -25.2437 -90.5902 -0.150607 0.0180628 0.988429 231 231 231
6.32156 7.75442 -93.5465 -0.234352 0.411796 0.880626 237 237 237
-17.6949 -31.2534 -90.5763 -0.157417 -0.000882084 0.987532 220 220 220
-17.7165 -34.2385 -90.5755 -0.157163 0.00154822 0.987572 213 213 213
12.6052 16.1177 -99.4649 -0.105178 -0.593672 -0.797804 195 195 195
-14.6014 -40.2189 -90.0215 -0.126822 -0.0115703 0.991858 194 194 194
-17.6904 -40.2084 -90.5615 -0.147419 -0.00475977 0.989063 200 200 200
-17.6895 -43.2307 -90.5579 -0.146531 -3.84445e-05 0.989206 191 191 191
-17.7421 -19.9539 -121.133 -0.00020822 -0.999999 -0.00163511 139 139 139
-17.7068 -52.2547 -90.5465 -0.161528 0.0021466 0.986866 166 166 166
-56.5109 52.9553 -248.222 0.300909 0.00974906 0.953603 248 248 248
-17.6513 -61.245 -90.3672 -0.164805 0.00577443 0.986309 143 143 143
-17.5529 -64.3095 -90.3143 -0.158691 0.0878725 0.98341 134 134 134
-21.0598 -19.9345 -126.925 0.00196376 -0.999993 -0.00313163 135 135 135
98.6756 64.636 -309.249 0.596147 -0.000533669 0.802875 234 234 234
-17.6037 -67.2655 -90.2063 -0.110736 0.242176 0.963892 124 124 124
-13.2859 46.7423 -266.159 0.39073 0.0118004 0.92043 254 254 254
-17.5549 -69.2219 -90.1206 -0.03234 0.273975 0.961193 110 110 110
-11.2092 46.8973 -73.3839 -0.388269 -0.445178 0.806885 132 132 132
-12.3198 46.0179 -74.6287 -0.265466 -0.55627 0.787459 137 137 137
-13.9847 38.5997 -81.9905 -0.518298 -0.64509 0.561451 156 156 156
33.624 -19.9616 -84.5796 -0.0530783 -0.874521 -0.482074 148 148 148
-4.93384 -34.7708 -76.4892 -0.366545 0.449815 0.814439 195 195 195
-64.7454 78.9164 -244.481 -0.646303 -0.247622 -0.721787 234 234 234
-33.2317 55.5945 -258.342 -0.349229 -0.355325 -0.867054 241 241 241
-11.4515 43.6564 -75.5778 -0.393766 -0.600324 0.696103 143 143 143
134.096 -43.1802 -323.281 0.32937 0.0154246 0.944075 230 230 230
-64.6989 70.7088 -244.329 0.481257 0.0139772 0.876468 240 240 240
-62.689 77.7508 -253.497 0.724716 0.680666 0.107146 230 230 230
-64.7124 67.6991 -244.373 0.49947 -0.013518 0.866226 242 242 242
-64.7235 58.6409 -244.41 0.498909 -0.000945043 0.866654 246 246 246
-64.7385 52.6062 -244.458 0.510021 0.000230696 0.860162 250 250 250
-64.7065 49.5614 -244.354 0.50769 0.000797808 0.861539 250 250 250
-64.7068 46.5396 -244.355 0.508858 -4.82685e-05 0.860851 251 251 251
134.295 88.5016 -323.801 0.334399 -0.000221005 0.942431 220 220 220
-4.98148 -28.9016 -84.2977 0.41059 -0.845969 -0.340223 171 171 171
18.329 -19.9511 -90.6365 0.00287579 -0.999686 -0.0249053 147 147 147
108.723 76.6573 -303.838 0 0 1 165 165 165
137.984 7.63454 -324.907 0.190037 -0.046629 0.980669 234 234 234
-64.6892 40.4861 -244.297 0.489748 0.0677412 0.869228 254 254 254
-53.6448 64.8174 -250.1 0.535665 0.0207953 0.844174 242 242 242
-64.6964 37.7704 -244.321 0.442183 -0.0146813 0.896805 255 255 255
0.914637 32.8782 -79.7224 -0.188456 -0.748246 0.636092 189 189 189
91.5645 19.9528 -304.403 0.536953 0.297626 0.789367 245 245 245
-64.6657 35.0367 -244.221 0.450516 -0.0679309 0.89018 255 255 255
79.7263 -35.1108 -302.018 -0.377313 5.72181e-05 -0.926086 241 241 241
-64.6758 32.0204 -244.254 0.475036 -0.0149151 0.87984 255 255 255
-64.648 25.9692 -244.163 0.443752 -0.0235855 0.895839 254 254 254
-47.1943 31.8859 -252.765 0.293807 0.0150585 0.955746 253 253 253
-64.6451 19.9292 -244.153 0.446018 -0.0121071 0.894942 254 254 254
3.96237 -33.2979 -77.511 0.313395 0.558856 0.767765 190 190 190
-64.6441 16.9092 -244.15 0.447604 -0.0145558 0.894113 254 254 254
31.0039 -7.75098 -108.056 0.856664 -0.354508 0.374768 118 118 118
-10.0249 27.2669 -98.4255 -0.437337 -0.863217 0.252177 165 165 165
-14.5171 -49.2503 -89.943 -0.143528 0.0217905 0.989406 173 173 173
-64.6411 13.8889 -244.14 0.449157 -0.0195949 0.893238 254 254 254
36.468 -19.9624 -93.8511 0.00012229 -0.999996 -0.00270456 146 146 146
-64.6554 10.8719 -244.187 0.449905 0.0214886 0.892818 254 254 254
-64.6639 7.85279 -244.215 0.427203 -0.056319 0.9024 254 254 254
56.444 -19.8845 -127.604 -0.01213 0.99938 0.0330657 140 140 140
-41.6644 -34.232 -253.939 -0.231554 -0.0455328 -0.971756 247 247 247
-41.722 28.9256 -254.222 0.224116 0.0116871 0.974492 252 252 252
-2.4704 -28.0766 -84.658 0.25782 -0.886528 -0.384183 176 176 176
-64.6537 4.8319 -244.181 0.434436 -0.0228555 0.900413 254 254 254
-8.53323 26.1939 -99.6443 -0.401579 -0.888318 0.222766 164 164 164
-64.6467 1.81181 -244.158 0.418288 0.0129421 0.908222 254 254 254
-41.7277 13.8354 -254.25 0.22591 0.00872543 0.974109 252 252 252
-64.635 -4.22679 -244.12 0.433204 0.035973 0.900578 254 254 254
91.5522 -16.1858 -304.357 0.370678 -0.163615 0.914236 242 242 242
-64.6449 -19.3249 -244.153 0.455627 -0.0537714 0.888545 254 254 254
-1.31689 -6.76274 -97.6374 0.62374 0.364173 -0.691611 202 202 202
121.794 -40.2151 -315.698 -0.196345 0.0401924 -0.979711 232 232 232
91.5038 -34.2331 -304.176 0.0719644 -0.0134304 0.997317 233 233 233
-64.6374 -22.3425 -244.128 0.452475 0.00605734 0.891757 254 254 254
-43.8803 -16.3018 -253.487 0.258766 -0.0063654 0.965919 253 253 253
76.8362 40.6407 -301.478 -0.317388 -0.0148137 -0.94818 243 243 243
-64.6263 -25.3582 -244.092 0.43083 -0.0117943 0.902356 253 253 253
-64.6257 -28.3764 -244.09 0.440426 0.0407461 0.896864 253 253 253
-64.7029 -33.8457 -244.342 -0.427036 0.0356156 -0.903533 253 253 253
-32.4758 -19.9316 -138.932 -0.000707681 1 0.000127906 139 139 139
121.844 31.6395 -315.837 -0.168201 -0.0847064 -0.982107 232 232 232
42.3554 -19.948 -99.5739 -0.00967054 -0.999953 -0.000885001 145 145 145
-20.7294 -19.949 -105.431 -0.00225928 -0.999997 -6.75715e-05 141 141 141
30.0735 4.34464 -103.269 0.843976 0.180733 0.505015 175 175 175
-15.6507 36.4125 -86.5953 -0.559529 -0.681269 0.472017 155 155 155
-14.5368 34.7924 -87.6121 -0.53662 -0.714131 0.449506 161 161 161
-64.5211 79.6517 -251.579 0.726131 0.687447 0.0122776 207 207 207
-63.0134 76.516 -246.489 -0.461305 -0.0124858 -0.887154 232 232 232
-63.0068 73.7656 -246.467 0.376636 -0.00366578 0.926354 235 235 235
-63 70.711 -246.444 0.339408 0.0827324 0.936994 238 238 238
45.0715 -19.9455 -129.37 0.00324258 0.999991 -0.00262863 137 137 137
-63.0116 67.6739 -246.483 0.29436 0.00228105 0.955692 238 238 238
1.2665 27.6171 -166.645 0 0 1 5 5 5
-62.9884 64.605 -246.405 0.28973 0.000406164 0.957108 240 240 240
-26.6369 -25.1474 -260.685 0.673012 0.208755 0.709561 254 254 254
-62.6734 61.6221 -246.663 0.301315 -0.0552391 0.951923 242 242 242
27.8713 1.97071 -99.6263 0.734179 0.104244 0.670906 204 204 204
141.065 -40.5208 -324.398 0.140707 -0.012903 -0.989967 229 229 229
-62.6522 58.4521 -246.591 0.293684 -0.000305009 0.955903 243 243 243
36.4754 -19.9758 -84.702 0.472762 0.771128 0.426447 146 146 146
-8.31899 44.1259 -73.4186 -0.393008 -0.489996 0.778105 141 141 141
-62.3818 55.6978 -247.001 0.320959 -0.0446223 0.946041 245 245 245
-62.6687 46.7717 -246.647 0.315046 -0.0444864 0.948033 249 249 249
39.435 -19.9215 -129.214 -0.00142801 -0.999999 0.00041833 137 137 137
-2.62529 -19.9736 -123.604 -0.0153565 -0.999848 0.00824655 139 139 139
-62.2769 43.5242 -246.977 0.339192 -0.0114553 0.940647 249 249 249
-62.1434 40.5376 -247.076 0.32382 0.0266744 0.945742 250 250 250
-58.4017 55.5176 -246.649 0.226515 0.0653563 0.971812 248 248 248
-62.136 37.7505 -247.051 0.319268 0.0384805 0.946883 250 250 250
-62.1312 31.774 -247.034 0.305182 0.0681968 0.949849 252 252 252
150.604 34.8441 -339.447 0.92388 -2.78136e-11 0.382683 229 229 229
-62.0358 28.7324 -247.153 0.327547 0.086548 0.940863 251 251 251
-62.0316 19.5614 -247.138 0.318174 -0.0904338 0.943709 251 251 251
-56.5288 64.4847 -248.289 0.304783 0.0109307 0.952359 241 241 241
-61.9226 16.6452 -247.211 0.315231 0.00054732 0.949015 251 251 251
-6.14546 45.7407 -71.4328 -0.365875 -0.439083 0.820574 139 139 139
-62.1249 10.8614 -247.013 0.306508 -0.00435483 0.951858 250 250 250
23.2398 12.5621 -100.566 -0.532214 -0.614083 -0.582795 201 201 201
-62.0154 4.88928 -247.083 0.277121 0.0528178 0.959382 251 251 251
12.4813 33.5906 -77.519 0.0355925 -0.73265 0.679674 200 200 200
-62.0208 -4.27851 -247.101 0.309274 -0.0133217 0.95088 250 250 250
-62.0219 1.83374 -247.105 0.309682 0.0233052 0.950554 250 250 250
-2.90772 49.0554 -68.6514 -0.300506 -0.390689 0.870091 115 115 115
-61.2127 73.7146 -248.348 -0.607281 -0.472187 -0.638943 234 234 234
126.177 13.8167 -319.194 0.595664 0.00517333 0.803217 237 237 237
-62.0106 -10.389 -247.066 0.303833 -0.0617855 0.95072 250 250 250
134.096 -31.1856 -323.28 0.336315 0.00214783 0.941747 231 231 231
-62.1159 -16.3581 -246.982 0.3486 -0.00023337 0.937272 251 251 251
104.711 -40.2284 -309.784 -0.219949 -0.113132 -0.968929 231 231 231
-61.9068 -22.1436 -247.156 0.300711 0.00720859 0.953688 252 252 252
98.7005 70.0102 -309.335 0.728226 -0.406109 0.552052 230 230 230
-62.0069 -25.0544 -247.054 0.355754 0.0975826 0.929471 251 251 251
91.5522 22.9611 -304.357 0.183428 0.193262 0.963849 244 244 244
-61.9962 -33.2993 -247.018 -0.339943 -0.196064 -0.919781 253 253 253
-31.8708 -19.9293 -141.353 -0.00155904 0.999994 -0.00307168 138 138 138
23.4344 -12.2525 -100.679 0.540898 -0.605598 0.583679 186 186 186
-29.4969 -19.9412 -135.504 -0.00176679 -0.999995 -0.00247858 133 133 133
-8.90601 -53.6817 -88.9458 0.234379 0.128147 -0.963662 158 158 158
-20.516 -19.9384 -108.204 0.00024525 -0.999999 -0.0012813 141 141 141
-8.43908 35.0545 -81.741 -0.389509 -0.715719 0.57968 172 172 172
94.9997 31.4623 -306.499 0.448093 -0.0190952 0.893783 239 239 239
-17.473 -19.9578 -96.7168 0.00281325 -0.999859 -0.0165698 143 143 143
141.384 80.0324 -325.186 0.0830781 -0.0121344 -0.996469 222 222 222
-10.3641 50.6494 -71.018 0.449998 0.388779 -0.803961 116 116 116
18.2939 -19.9454 -99.8056 -0.165757 -0.956595 -0.239687 145 145 145
15.2415 46.9758 -67.4878 0.0879419 -0.422758 0.901966 144 144 144
-61.1812 67.5417 -248.238 0.308808 -0.0636605 0.948992 242 242 242
-16.6972 32.7792 -94.66 -0.559953 -0.762749 0.323522 152 152 152
-61.2097 75.5542 -248.338 -0.666167 -0.570635 -0.480204 230 230 230
-26.9909 -20.182 -263.204 0.869134 0.382081 0.314039 242 242 242
-53.3781 31.6824 -250.065 0.503166 -0.00399573 0.864181 251 251 251
50.9338 51.8707 -291.259 -0.411607 -0.42179 -0.807882 242 242 242
-61.2066 70.6371 -248.327 0.277193 0.0415028 0.959918 237 237 237
-61.1801 62.0147 -248.235 0.311255 -0.0216521 0.95008 247 247 247
6.38987 35.1545 -76.0728 -0.00667084 -0.782083 0.623139 187 187 187
-61.1726 59.0919 -248.208 0.328824 0.0619334 0.942358 249 249 249
30.5143 -19.9494 -87.5865 0.113143 -0.98183 -0.152346 146 146 146
-61.182 52.806 -248.241 0.296152 -0.0966407 0.950239 248 248 248
-61.1631 50.3365 -248.175 0.28848 0.00392574 0.957478 251 251 251
-61.1688 46.8105 -248.195 0.292485 -0.00920455 0.956226 254 254 254
111.548 19.7127 -312.533 0.381571 0.00361732 -0.924333 241 241 241
-43.9215 13.8045 -253.681 0.246937 0.00987931 0.968981 252 252 252
33.2041 -20.2778 -82.5151 -0.0410198 0.605877 0.7945 217 217 217
-61.1628 31.9205 -248.174 0.274766 0.000838023 0.961511 255 255 255
-23.4393 -28.2926 -272.341 -0.82562 -0.511324 0.238537 139 139 139
-31.2815 -19.9415 -143.966 0.00241898 -0.999989 0.00395751 132 132 132
-53.4893 28.753 -249.994 0.51564 -0.00388328 0.856796 253 253 253
-26.7432 -19.9798 -130.283 0.00179457 -0.999998 -0.00131473 136 136 136
3.45088 -19.9486 -93.6501 -0.0022642 -0.999997 -0.000994501 146 146 146
3.73469 -28.3739 -84.4465 -0.191413 -0.825486 -0.530974 178 178 178
-20.5895 -19.9422 -111.056 0.00129466 -0.999998 -0.00117491 141 141 141
-14.538 -25.2461 -90.0205 -0.151395 0.0292539 0.98804 229 229 229
18.3028 49.7913 -66.6719 0.143549 -0.383584 0.912281 135 135 135
-14.5537 -28.2492 -90.0209 -0.158017 -0.000914542 0.987436 224 224 224
-14.5877 -43.265 -90.2156 -0.146906 0.00906403 0.989109 177 177 177
102.426 46.6936 -312.026 0.252371 0.0101115 0.967578 236 236 236
79.8356 49.7561 -302.491 0.355746 -0.00180027 0.934581 236 236 236
0.897064 13.8838 -102.028 0.519854 -0.672572 -0.526687 153 153 153
9.52844 -19.9443 -108.236 -0.00512652 -0.994383 0.105718 138 138 138
-14.5144 -46.2395 -90.044 -0.135361 0.0218268 0.990556 179 179 179
-14.5213 -52.2185 -89.9276 -0.152323 0.0172277 0.988181 164 164 164
-5.55854 -19.9369 -114.336 0.000504839 -1 -0.000531684 139 139 139
-33.169 -4.14765 -257.968 0.128599 0.130012 0.983137 252 252 252
-14.5212 -61.2261 -89.9262 -0.159487 0.0143436 0.987096 138 138 138
-50.3877 13.6876 -251.533 0.399639 -0.00590036 0.916653 251 251 251
-26.6583 40.6463 -260.838 0.475598 -0.00510155 0.879648 252 252 252
-14.571 -67.2457 -89.7793 -0.151378 0.145543 0.977702 117 117 117
9.60865 -40.1921 -78.494 0.669797 0.100829 0.735667 145 145 145
126.159 34.7334 -319.143 0.600964 0.0066503 0.799248 235 235 235
-33.1972 34.7981 -258.136 0.135922 0.0151072 0.990604 254 254 254
-8.25404 49.4779 -70.6373 -0.386791 -0.376412 0.841847 112 112 112
-8.58032 46.6579 -72.0764 -0.404294 -0.430105 0.80719 133 133 133
-10.9876 38.6853 -79.451 -0.446243 -0.635044 0.630544 159 159 159
121.922 52.3784 -316.058 -0.270591 0.00209051 -0.962692 230 230 230
-14.606 31.6943 -93.521 -0.539832 -0.775648 0.327035 158 158 158
-56.4529 4.90746 -248.006 0.431229 -0.0128559 0.902151 252 252 252
-61.0274 76.6537 -256.116 0.669588 0.733362 0.117613 86 86 86
72.4544 39.2458 -293.825 0.620681 0.693806 0.365224 241 241 241
-58.4428 70.8121 -246.797 0.247365 0.10546 0.963166 236 236 236
-58.4317 67.7489 -246.757 0.272736 -0.0268636 0.961714 241 241 241
5.37683 22.9226 -132.39 0 0 1 5 5 5
-58.4224 46.9907 -246.723 0.212825 -0.0426241 0.97616 249 249 249
-58.3934 40.8708 -246.619 0.223189 0.0606273 0.972888 251 251 251
28.1874 11.067 -105.445 0.740383 0.531813 0.411105 154 154 154
-58.3921 28.6698 -246.614 0.241607 0.0554252 0.96879 253 253 253
-58.3898 19.5191 -246.606 0.265086 0.0660688 0.961959 253 253 253
-58.3706 10.9765 -246.537 0.127881 -0.0509201 0.990481 250 250 250
8.28314 -14.5974 -98.3588 -0.221778 -0.420943 0.879557 207 207 207
-58.3936 1.83008 -246.619 0.267741 -0.000995842 0.963491 251 251 251
-58.3775 -4.26906 -246.561 0.268504 -0.00264433 0.963275 251 251 251
-26.6498 34.8316 -260.777 0.477019 0.0265131 0.878493 251 251 251
-58.3545 -19.5094 -246.478 0.259708 0.0689315 0.963224 251 251 251
-58.3567 -22.2533 -246.486 0.263199 0.00427477 0.964732 251 251 251
-58.3494 -28.0424 -246.46 0.274707 -0.0107995 0.961467 251 251 251
98.6505 37.8532 -309.161 0.596058 -0.00445768 0.802929 241 241 241
-58.3468 -31.0893 -246.451 0.263923 -0.0180658 0.964375 251 251 251
-58.3361 -33.2175 -246.412 -0.17019 0.0491765 -0.984183 251 251 251
21.4759 29.2817 -84.7314 0.201257 -0.819751 0.536194 211 211 211
-2.72214 -19.9402 -121.05 -0.00251254 -0.999994 0.00233364 140 140 140
-26.7475 -19.9245 -135.96 0.00197009 -0.999995 -0.00230134 132 132 132
-11.4034 -19.9519 -139.074 -0.00256682 -0.999984 0.00504016 135 135 135
-20.6388 -19.9374 -114.338 -0.000408131 -0.999999 0.000953276 140 140 140
21.4325 22.6886 -99.4788 0.198038 -0.949535 0.243237 188 188 188
111.578 40.5966 -312.624 0.39294 0.0114749 -0.919493 235 235 235
3.5468 -22.2723 -87.2019 -0.198412 0.34373 0.917868 237 237 237
-17.5209 -19.9484 -105.33 -0.000163228 -1 -0.000891704 142 142 142
-47.2234 55.6723 -252.894 0.296661 0.00238405 0.95498 245 245 245
15.1284 16.1305 -99.9266 -0.155741 -0.524506 -0.837041 195 195 195
6.72155 13.2881 -97.1731 -0.220549 0.677872 0.701318 210 210 210
-14.5432 -19.9449 -93.6708 0.0189306 -0.981033 -0.192915 144 144 144
-11.5267 34.7515 -84.577 -0.47066 -0.710406 0.523261 168 168 168
150.617 94.8863 -339.48 0.923879 -4.10346e-10 0.382684 221 221 221
-5.55307 -61.2346 -88.3076 -0.185238 0.0511123 0.981364 133 133 133
-15.1461 30.966 -96.4244 -0.540099 -0.788327 0.294676 155 155 155
115.931 -15.6619 -316.594 -0.31047 0.00129032 -0.950582 242 242 242
-57.8345 73.2646 -253.162 0.626121 0.756416 0.189229 228 228 228
9.62001 -3.92868 -91.8443 -0.0343358 -0.175801 0.983827 251 251 251
-56.5193 55.8788 -248.253 0.289403 0.0147169 0.957094 248 248 248
-56.5038 70.2928 -248.196 -0.468413 -0.290773 -0.83429 237 237 237
12.3294 46.7968 -67.4123 0.0325083 -0.421778 0.906116 143 143 143
98.6245 34.784 -309.071 0.596059 0.00289468 0.802935 240 240 240
-56.5163 67.3893 -248.242 0.287906 -0.032793 0.957097 239 239 239
-56.4934 64.4505 -248.157 0.304783 0.0109307 0.952359 242 242 242
18.4504 23.0495 -96.5848 0.131832 -0.947278 0.292035 197 197 197
-56.5216 61.7145 -248.262 0.295051 0.00393798 0.955473 243 243 243
-56.4899 52.1714 -248.144 0.36573 0.0352609 0.930053 245 245 245
0.747345 36.1079 -70.4934 0.0973417 -0.901875 0.420888 154 154 154
-56.5171 50.0438 -248.245 0.291414 0.0122883 0.956518 251 251 251
-56.4837 48.4842 -248.121 0.384504 0.00757905 0.923092 250 250 250
-56.4898 46.9542 -248.143 0.289696 -0.00614874 0.957099 249 249 249
102.352 -13.4955 -311.777 0.253264 -0.101349 0.962074 237 237 237
-56.4884 44.8051 -248.138 0.302478 -0.0410036 0.952274 249 249 249
-56.5099 43.2847 -248.218 0.288041 0.0490443 0.956361 249 249 249
-56.5104 40.3176 -248.22 0.36494 0.0245013 0.930708 251 251 251
-56.4879 40.8152 -248.136 0.317942 0.0424325 0.94716 253 253 253
-56.4738 34.9771 -248.083 0.361983 -0.0531987 0.930665 251 251 251
-56.4658 28.8372 -248.054 0.366314 0.0893431 0.926192 249 249 249
-56.5019 28.853 -248.189 0.366314 0.0893431 0.926192 250 250 250
12.9791 45.3984 -68.2305 0.0498609 -0.469186 0.881691 150 150 150
-56.4773 25.6205 -248.097 0.427581 0.00741444 0.903946 252 252 252
-56.4958 26.3949 -248.166 0.438424 -0.0261913 0.898387 253 253 253
-11.6876 31.1787 -90.5969 -0.472274 -0.782933 0.404936 169 169 169
-56.4757 22.705 -248.091 0.430071 0.00112878 0.902794 251 251 251
27.3324 -40.2592 -83.4173 -0.150756 0.00400787 0.988563 181 181 181
-56.4939 22.7113 -248.159 0.430071 0.00112878 0.902794 252 252 252
-56.473 19.6361 -248.08 0.428577 -0.00667729 0.903481 251 251 251
-56.459 -1.22692 -248.028 0.433733 0.00410158 0.901032 251 251 251
-8.48823 37.8146 -78.6913 -0.396516 -0.6541 0.644149 164 164 164
-53.5147 43.9212 -250.096 0.518337 0.00446981 0.855165 251 251 251
30.903 24.8716 -102.352 0.376881 -0.901129 0.214304 174 174 174
-56.4461 -4.29362 -247.98 0.432252 -0.00157396 0.901752 251 251 251
98.6148 -19.4921 -309.037 0.593572 0.00131478 0.80478 240 240 240
-56.4584 -7.36193 -248.026 0.433003 0.00256788 0.901389 250 250 250
-56.4512 -13.4953 -247.999 0.4347 0.0212197 0.900325 250 250 250
-56.4338 -25.1438 -247.934 0.435451 -0.00568445 0.900194 251 251 251
104.812 -22.2452 -310.116 -0.219756 -0.00612929 -0.975536 237 237 237
-0.569738 48.4336 -68.2742 -0.30516 -0.236696 0.922416 123 123 123
-38.3621 43.7316 -255.418 0.454466 0.0655157 0.888351 251 251 251
-20.671 -31.2951 -269.196 0.68342 0.724453 0.0900321 198 198 198
-5.00004 -46.1082 -76.5622 -0.326227 -0.363269 0.872703 125 125 125
-56.436 -31.2774 -247.943 0.381035 -0.0748779 0.921524 248 248 248
-23.8371 -19.9671 -129.683 0.00312269 -0.999995 -0.000722014 134 134 134
-33.1801 16.5943 -258.034 0.319394 -0.0236322 0.947327 253 253 253
-20.4446 -19.9438 -117.715 0.000609967 -1 -2.53293e-05 141 141 141
-14.5311 -19.9497 -96.5944 0.000631449 -0.999998 -0.00183611 144 144 144
12.4997 10.4255 -94.3617 0.0467863 0.503938 0.862472 237 237 237
-47.0369 -10.1371 -252.638 0.296041 0.0163045 0.955036 251 251 251
-8.39921 40.9506 -75.7699 -0.391814 -0.585199 0.709947 153 153 153
102.391 13.5015 -311.906 0.249655 -0.0936531 0.963795 239 239 239
121.872 41.0244 -315.916 -0.197696 0.0805602 -0.976947 231 231 231
111.564 -16.2366 -312.583 -0.378388 -0.0173014 -0.925485 241 241 241
-11.268 32.3733 -87.9603 -0.460723 -0.767178 0.446288 171 171 171
-15.5854 30.4658 -98.9314 0.534272 0.803327 -0.263097 147 147 147
-14.1241 29.2017 -99.6153 0.504073 0.827443 -0.247486 146 146 146
-53.6505 67.6408 -250.122 0.541585 0.00889915 0.840599 238 238 238
35.0759 27.2397 -100.574 0.447904 -0.864114 0.229541 172 172 172
-35.492 22.9735 -257.998 0.461968 0.0686309 0.884237 255 255 255
28.4212 -25.2801 -83.0925 -0.152927 0.0544449 0.986737 221 221 221
-53.5248 61.8708 -250.136 0.523296 0.0127582 0.852056 243 243 243
76.8438 49.5953 -301.513 0.301898 -0.00242971 0.953337 241 241 241
12.4164 41.51 -70.5786 0.0332006 -0.570528 0.820607 167 167 167
-53.5259 55.6847 -250.14 0.524689 -0.00231089 0.851291 246 246 246
-53.6255 46.8629 -250.023 0.517959 0.0124389 0.855315 250 250 250
18.0928 -19.3864 -105.441 0.181167 -0.964257 0.193356 141 141 141
-53.5117 40.8262 -250.083 0.519851 0.00493192 0.854242 251 251 251
24.4062 -55.2628 -83.8352 -0.160822 0.03443 0.986383 133 133 133
111.573 61.4727 -312.611 0.365101 0.0205905 -0.93074 234 234 234
-53.4808 34.6236 -249.961 0.516701 -0.000101906 0.856166 253 253 253
-53.488 19.7872 -249.99 0.511609 0.00853248 0.859176 251 251 251
-53.4814 13.6024 -249.965 0.518761 -0.00567184 0.8549 251 251 251
-8.64508 28.1974 -93.5098 -0.416246 -0.842047 0.343069 174 174 174
-53.5842 7.8966 -249.86 0.515568 0.0116661 0.856769 253 253 253
-53.4827 4.94638 -249.97 0.516392 0.00757045 0.856319 251 251 251
6.23124 27.3752 -86.2959 -0.109281 -0.85931 0.499644 204 204 204
-53.4893 -4.32851 -249.996 0.514645 0.00208221 0.857401 250 250 250
117.603 -25.5979 -316.338 -0.138463 0.0118876 0.990296 236 236 236
-53.4696 -16.0724 -249.917 0.518218 0.0199994 0.855015 253 253 253
141.273 67.9094 -324.911 0.109402 -0.0203672 -0.993789 225 225 225
126.122 -16.1774 -319.044 0.595348 0.00852738 0.803423 239 239 239
-50.3923 19.9108 -251.552 0.398909 0.0173339 0.916827 250 250 250
-53.4628 -19.1613 -249.891 0.518219 0.0059338 0.855228 253 253 253
95.0514 55.756 -306.685 0.460356 -0.0145567 0.887615 234 234 234
-53.4633 -22.252 -249.894 0.517035 1.52926e-05 0.855964 253 253 253
108.927 1.94022 -313.757 -0.301535 -0.0916392 -0.949041 240 240 240
-53.4638 -25.3427 -249.895 0.517689 -0.0060951 0.855547 253 253 253
-26.5588 -19.9385 -143.944 0.002074 0.999989 -0.00428429 121 121 121
-50.3728 -16.1723 -251.471 0.393212 0.0134147 0.91935 250 250 250
21.2368 -12.9555 -99.6161 0.452136 -0.636111 0.625249 194 194 194
-23.8063 -19.9561 -135.605 0.00131207 -0.999996 -0.00251885 133 133 133
-23.0314 -19.8818 -132.501 0.00228989 -0.999996 -0.00171196 139 139 139
-20.7096 -19.9561 -123.181 0.00136659 -0.999997 -0.00187374 136 136 136
-11.5418 -64.0371 -89.4188 -0.180243 0.0465925 0.982518 129 129 129
-20.0526 -19.8777 -120.55 0.0018856 -0.999997 0.00159101 140 140 140
79.8552 46.7764 -302.576 0.359316 -0.00678311 0.933191 237 237 237
-17.7245 -19.9383 -111.188 -0.000463057 -0.999999 -0.00154796 143 143 143
-11.2077 -67.2983 -88.9904 -0.156985 0.106066 0.981889 119 119 119
-33.1634 -28.0717 -257.934 0.145826 -0.00388027 0.989303 254 254 254
-23.9909 -19.9266 -138.898 0.000336847 -1 -0.000191501 132 132 132
-11.466 -25.2725 -89.4887 -0.158323 0.0418993 0.986498 230 230 230
-11.5088 -28.2599 -89.4976 -0.128102 -0.0353896 0.991129 224 224 224
-41.7608 40.9037 -254.413 0.257072 0.0237686 0.9661 253 253 253
-11.674 -34.0714 -89.564 -0.105604 -0.0418689 0.993526 207 207 207
-12.3073 -36.984 -89.9863 0.0861354 0.0231233 -0.996015 191 191 191
130.529 -4.38544 -322.37 -0.444608 0.0299308 -0.895225 235 235 235
-8.80714 -37.0322 -78.3104 0.610085 -0.287681 -0.738266 168 168 168
-12.3315 -49.6264 -89.8035 0.530607 0.330701 -0.780444 165 165 165
91.5721 56.0992 -304.431 0.0589508 -0.126184 0.990254 236 236 236
-11.4919 -55.2602 -89.4261 -0.195513 -0.0662507 0.978461 154 154 154
-11.4771 -58.2302 -89.4527 -0.128499 0.00797774 0.991678 146 146 146
51.65 -19.954 -130.115 -0.0102158 0.999856 0.0135388 133 133 133
-11.4774 -61.214 -89.4534 -0.158224 0.0171828 0.987254 139 139 139
21.4245 40.8286 -72.5416 0.213287 -0.587815 0.780373 180 180 180
23.9915 44.5268 -70.7507 0.256786 -0.504831 0.82414 165 165 165
54.7806 -19.9652 -126.458 -4.73971e-05 -0.999777 -0.0211233 134 134 134
-5.29176 47.0242 -70.392 -0.33195 -0.41016 0.849457 133 133 133
-50.3768 -13.063 -251.488 0.388223 0.0120196 0.921487 250 250 250
-10.6393 33.1724 -85.9691 -0.442944 -0.754985 0.483527 169 169 169
-11.5781 28.6596 -96.5732 -0.481133 -0.831008 0.279172 164 164 164
-3.00464 -29.879 -80.3983 0.22537 -0.821155 -0.524322 200 200 200
0.42367 -56.6012 -87.4236 0.14357 -0.0023902 -0.989637 144 144 144
18.5928 -4.1631 -93.4643 0.360403 -0.220936 0.906255 248 248 248
89.423 52.7939 -307.106 0.00602273 -0.00674883 0.999959 238 238 238
-51.8818 68.8563 -257.756 0.621989 0.78013 0.0672883 194 194 194
-50.4599 61.6681 -251.834 0.412014 0.0142323 0.911067 242 242 242
120.96 77.0534 -316.261 0.173621 -0.0142959 -0.984709 227 227 227
117.444 55.9775 -316.517 -0.0971783 -0.00677866 0.995244 232 232 232
-50.4441 58.5382 -251.768 0.399959 -0.00944382 0.916484 246 246 246
26.8616 7.33948 -100.221 0.709971 0.330559 0.621829 201 201 201
102.385 5.01445 -311.885 0.249476 0.0920303 0.963998 239 239 239
130.598 76.9907 -322.553 0.451412 0.0279606 0.891878 223 223 223
102.386 -1.1573 -311.891 0.244416 -0.0103167 0.969616 240 240 240
-50.4343 52.9249 -251.727 0.39452 0.0172247 0.918726 250 250 250
-14.3969 46.7953 -265.528 0.39872 0.00427789 0.917063 251 251 251
-50.4398 49.8161 -251.75 0.392838 0.0210064 0.919368 251 251 251
-50.4247 34.8625 -251.687 0.403496 0.0222615 0.914711 251 251 251
-50.3823 4.97672 -251.51 0.401026 0.0047842 0.916054 249 249 249
-50.3938 1.86672 -251.558 0.398412 0.0083762 0.917169 248 248 248
-50.3842 -1.24422 -251.518 0.396435 0.00348813 0.918056 250 250 250
-50.3863 -10.2655 -251.527 0.388931 0.00226812 0.921264 250 250 250
6.35032 36.7273 -74.6053 0.243906 -0.766637 0.593951 183 183 183
-50.3656 -25.1885 -251.441 0.397541 0.00125423 0.917584 249 249 249
-50.3664 -27.9875 -251.444 0.394625 -0.0028307 0.918838 249 249 249
86.1461 -26.4396 -305.405 0.369309 -0.0653285 0.927008 236 236 236
-20.6435 -19.9429 -132.724 0.00265158 -0.999995 -0.00150854 134 134 134
3.33322 -10.2892 -96.3714 -0.433461 -0.546575 0.716497 215 215 215
