# .PCD v0.7 - Point Cloud Data file format
VERSION 0.7
FIELDS x y z normal_x normal_y normal_z rgb
SIZE 4 4 4 4 4 4 4
TYPE F F F F F F F
COUNT 1 1 1 1 1 1 1
WIDTH 796
HEIGHT 1
VIEWPOINT 0 0 0 1 0 0 0
POINTS 796
DATA ascii
-56.15639619 111.0255748 -155.8547025 0 0 1 1.189323625e-38
-56.22175719 110.7493792 -156.0086833 0 0 1 1.14322581e-38
-56.31113211 110.5124429 -156.2192375 0 0 1 1.134006247e-38
-56.34029422 110.1744666 -156.2879391 0 0 1 1.180104062e-38
-56.71367808 110.40581 -157.1675763 0 0 1 1.14322581e-38
-57.07071567 110.6058453 -158.0087042 0 0 1 1.180104062e-38
-57.09056348 110.2476272 -158.0554627 0 0 1 1.14322581e-38
-57.25597355 110.127527 -158.4451444 0 0 1 1.14322581e-38
-57.80151382 110.6257238 -159.7303567 0 0 1 1.134006247e-38
-57.90299509 110.3956186 -159.9694316 0 0 1 1.198543188e-38
-58.01408734 110.1799 -160.2311486 0 0 1 1.198543188e-38
-58.03255665 109.8133813 -160.2746595 0 0 1 1.198543188e-38
-58.07793507 109.4899254 -160.3815644 0 0 1 1.180104062e-38
-58.77072752 110.2034057 -162.0136811 0 0 1 1.134006247e-38
-58.82570727 109.8904493 -162.1432053 0 0 1 1.216982314e-38
-58.9186657 109.6372695 -162.3622016 0 0 1 1.207762751e-38
-59.02261248 109.4004228 -162.6070849 0 0 1 1.189323625e-38
-59.38511837 109.5706726 -163.4610953 0 0 1 1.180104062e-38
-59.78915203 109.802035 -164.4129389 0 0 1 1.253860566e-38
-59.87256179 109.5261066 -164.60944 0 0 1 1.244641003e-38
-59.90973044 109.1769921 -164.6970039 0 0 1 1.198543188e-38
-60.29379461 109.3671646 -165.6018023 0 0 1 1.207762751e-38
-60.69376243 109.5775122 -166.5440675 0 0 1 1.263080129e-38
-60.81479439 109.3524646 -166.8292009 0 0 1 1.23542144e-38
-60.86496804 109.0169998 -166.9474026 0 0 1 1.253860566e-38
-61.23254622 109.1673883 -167.8133625 0 0 1 1.253860566e-38
-61.64039476 109.3749745 -168.7741935 0 0 1 1.263080129e-38
-61.7461339 109.1183309 -169.0232993 0 0 1 1.253860566e-38
-61.81289469 108.8014001 -169.1805778 0 0 1 1.263080129e-38
-61.92775072 108.5562786 -169.4511617 0 0 1 1.216982314e-38
-62.34362032 108.7623663 -170.4308891 0 0 1 1.263080129e-38
-62.71532635 108.8974686 -171.3065736 0 0 1 1.272299692e-38
-62.81661082 108.624835 -171.5451849 0 0 1 1.253860566e-38
-62.92773158 108.3656371 -171.806969 0 0 1 1.299958381e-38
-63.32187709 108.5240505 -172.7355176 0 0 1 1.281519255e-38
-63.75872538 108.740826 -173.7646677 0 0 1 1.272299692e-38
-63.88173061 108.4916474 -174.0544498 0 0 1 1.299958381e-38
-63.86140516 108.0313966 -174.0065661 0 0 1 1.299958381e-38
-64.00093752 107.8042627 -174.3352837 0 0 1 1.309177944e-38
-64.76515222 108.4818973 -176.1356607 0 0 1 1.281519255e-38
-64.82137404 108.1274755 -176.268111 0 0 1 1.336836633e-38
-64.9441644 107.8682116 -176.557387 0 0 1 1.281519255e-38
-65.0381459 107.5662195 -176.7787936 0 0 1 1.272299692e-38
-65.44630809 107.7116752 -177.7403634 0 0 1 1.272299692e-38
-65.86687073 107.8700055 -178.7311469 0 0 1 1.272299692e-38
-66.08188399 107.7323753 -179.2376864 0 0 1 1.318397507e-38
-66.06001188 107.2581886 -179.1861589 0 0 1 1.318397507e-38
-66.50644694 107.4419246 -180.237894 0 0 1 1.281519255e-38
-67.07837495 107.7959625 -181.585272 0 0 1 1.429032263e-38
-67.12312133 107.4091309 -181.6906879 0 0 1 1.346056196e-38
-67.2057103 107.0742604 -181.8852553 0 0 1 1.318397507e-38
-67.59585499 107.163175 -182.8043786 0 0 1 1.32761707e-38
-67.80836813 107.003261 -183.3050281 0 0 1 1.299958381e-38
-68.25351726 107.1594393 -184.3537338 0 0 1 1.336836633e-38
-68.33043481 106.8083234 -184.5349402 0 0 1 1.355275759e-38
-68.42254066 106.4769328 -184.7519279 0 0 1 1.32761707e-38
-68.9666074 106.7554777 -186.0336689 0 0 1 1.32761707e-38
-69.41035315 106.8926418 -187.0790683 0 0 1 1.309177944e-38
-69.54166524 106.6058944 -187.3884202 0 0 1 1.346056196e-38
-69.602589 106.2236887 -187.5319476 0 0 1 1.364495322e-38
-70.06647286 106.3761449 -188.6247895 0 0 1 1.346056196e-38
-70.62153683 106.6438052 -189.9324383 0 0 1 1.355275759e-38
-70.69952495 106.2767147 -190.1161668 0 0 1 1.382934448e-38
-70.76554341 105.8930216 -190.2716965 0 0 1 1.382934448e-38
-71.20529509 105.996389 -191.3076865 0 0 1 1.346056196e-38
-71.86937441 106.3861367 -192.8721594 0 0 1 1.32761707e-38
-71.96287485 106.0300242 -193.0924326 0 0 1 1.382934448e-38
-72.01415683 105.6184528 -193.2132454 0 0 1 1.346056196e-38
-72.16151012 105.3294453 -193.560388 0 0 1 1.382934448e-38
-72.71600449 105.5582949 -194.8666949 0 0 1 1.364495322e-38
-73.29993071 105.8180702 -196.2423388 0 0 1 1.346056196e-38
-73.33060262 105.3714508 -196.3145973 0 0 1 1.410593137e-38
-73.50948365 105.1110206 -196.7360146 0 0 1 1.364495322e-38
-74.02780264 105.2737686 -197.9570977 0 0 1 1.401373574e-38
-74.65238628 105.5629897 -199.4285245 0 0 1 1.410593137e-38
-74.69957509 105.128275 -199.5396944 0 0 1 1.4198127e-38
-74.80622592 104.7664675 -199.790948 0 0 1 1.401373574e-38
-74.89305401 104.3790443 -199.9955021 0 0 1 1.392154011e-38
-75.57521966 104.7191288 -201.6025837 0 0 1 1.346056196e-38
-76.07251235 104.8261098 -202.7741319 0 0 1 1.392154011e-38
-76.20043163 104.4795946 -203.0754908 0 0 1 1.401373574e-38
-76.25652387 104.0449488 -203.2076358 0 0 1 1.373714885e-38
-76.9386439 104.361133 -204.8146099 0 0 1 1.373714885e-38
-77.53554001 104.5675613 -206.220809 0 0 1 1.382934448e-38
-77.61583779 104.1529293 -206.4099787 0 0 1 1.410593137e-38
-77.70053149 103.7425614 -206.6095046 0 0 1 1.392154011e-38
-78.31649241 103.9565564 -208.0606176 0 0 1 1.392154011e-38
-79.00981713 104.2539862 -209.6939883 0 0 1 1.382934448e-38
-79.13619503 103.8825951 -209.9917159 0 0 1 1.392154011e-38
-79.20153015 103.4389454 -210.1456358 0 0 1 1.392154011e-38
-79.68585647 103.4779589 -211.2866372 0 0 1 1.410593137e-38
-80.14328402 103.4804492 -212.3642689 0 0 1 1.401373574e-38
-80.6327385 103.5141874 -213.5173514 0 0 1 1.401373574e-38
-80.72764664 103.093898 -213.740941 0 0 1 1.410593137e-38
-80.79818042 102.6449479 -213.9071081 0 0 1 1.382934448e-38
-81.46771478 102.8688397 -215.4844323 0 0 1 1.401373574e-38
-82.23090033 103.1897072 -217.2823847 0 0 1 1.410593137e-38
-82.25585391 102.6800339 -217.3411717 0 0 1 1.410593137e-38
-82.35876368 102.2563802 -217.5836119 0 0 1 1.401373574e-38
-83.0164145 102.4424844 -219.1329402 0 0 1 1.438251826e-38
-83.33893112 102.253781 -219.8927417 0 0 1 1.4198127e-38
-83.89500025 102.3158172 -221.2027585 0 0 1 1.401373574e-38
-84.03918448 101.9249488 -221.5424352 0 0 1 1.410593137e-38
-84.68066804 102.068503 -223.0536758 0 0 1 1.429032263e-38
-84.99097234 101.8494902 -223.7847069 0 0 1 1.410593137e-38
-85.6550002 102.0040628 -225.3490585 0 0 1 1.475130078e-38
-85.70774071 101.5025974 -225.4733074 0 0 1 1.438251826e-38
-85.85309543 101.0981994 -225.8157417 0 0 1 1.429032263e-38
-86.59154068 101.3141959 -227.5554096 0 0 1 1.410593137e-38
-87.43965462 101.6359779 -229.5534409 0 0 1 1.392154011e-38
-87.52443131 101.1561128 -229.7531622 0 0 1 1.438251826e-38
-87.66296723 100.7307076 -230.0795324 0 0 1 1.429032263e-38
-88.38785482 100.9050409 -231.7872605 0 0 1 1.429032263e-38
-89.31258158 101.2747135 -233.9657803 0 0 1 1.429032263e-38
-89.48540962 100.8712364 -234.3729376 0 0 1 1.465910515e-38
-89.48915749 100.2952949 -234.381767 0 0 1 1.465910515e-38
-90.20734546 100.4353756 -236.0737119 0 0 1 1.447471389e-38
-90.62489043 100.267511 -237.0573862 0 0 1 1.456690952e-38
-91.36979842 100.4190729 -238.8122794 0 0 1 1.447471389e-38
-91.42080529 99.87860375 -238.9324441 0 0 1 1.438251826e-38
-91.53826671 99.40259693 -239.2091659 0 0 1 1.438251826e-38
-92.45510344 99.70312499 -241.3690978 0 0 1 1.438251826e-38
-93.32199938 99.94465955 -243.4113767 0 0 1 1.447471389e-38
-93.49598747 99.50987029 -243.8212669 0 0 1 1.465910515e-38
-93.49882842 98.90949514 -243.8279598 0 0 1 1.465910515e-38
-94.41814186 99.1795808 -245.9937265 0 0 1 1.438251826e-38
-94.92467205 99.04928351 -247.1870369 0 0 1 1.447471389e-38
-95.52721196 99.00315701 -248.606532 0 0 1 1.456690952e-38
-95.63037444 98.48441403 -248.8495675 0 0 1 1.438251826e-38
-96.36159009 98.54637398 -250.5722036 0 0 1 1.447471389e-38
-96.84700333 98.37350301 -251.7157656 0 0 1 1.429032263e-38
-97.68808335 98.52036295 -253.6972259 0 0 1 1.438251826e-38
-97.76339031 97.9613018 -253.874638 0 0 1 1.456690952e-38
-97.90447892 97.46077788 -254.207022 0 0 1 1.465910515e-38
-98.924051 97.74694866 -256.6089832 0 0 1 1.429032263e-38
-99.39861558 97.53533058 -257.7269873 0 0 1 1.438251826e-38
-100.1017093 97.52059731 -259.3833724 0 0 1 1.447471389e-38
-100.0703576 96.85142789 -259.3095123 0 0 1 1.484349641e-38
-99.93921374 96.09539782 -259.0005568 0 0 1 1.843912597e-38
-99.93921374 95.45476184 -259.0005568 0 0 1 1.936108227e-38
-99.93921374 94.81412585 -259.0005568 0 0 1 1.954547353e-38
-99.93921374 94.17348987 -259.0005568 0 0 1 1.936108227e-38
-99.93921374 93.53285388 -259.0005568 0 0 1 1.982206042e-38
-99.93921374 92.8922179 -259.0005568 0 0 1 1.963766916e-38
-99.93921374 92.25158191 -259.0005568 0 0 1 1.963766916e-38
-99.93921374 91.61094593 -259.0005568 0 0 1 1.972986479e-38
-99.93921374 90.97030994 -259.0005568 0 0 1 1.972986479e-38
-99.93921374 90.32967396 -259.0005568 0 0 1 1.963766916e-38
-99.93921374 89.68903797 -259.0005568 0 0 1 1.972986479e-38
-99.93921374 89.04840198 -259.0005568 0 0 1 1.991425605e-38
-99.93921374 88.407766 -259.0005568 0 0 1 2.019084294e-38
-99.93921374 87.76713001 -259.0005568 0 0 1 2.019084294e-38
-99.93921374 87.12649403 -259.0005568 0 0 1 2.028303857e-38
-99.93921374 86.48585804 -259.0005568 0 0 1 2.019084294e-38
-99.93921374 85.84522206 -259.0005568 0 0 1 2.019084294e-38
-99.93921374 85.20458607 -259.0005568 0 0 1 1.991425605e-38
-99.93921374 84.56395009 -259.0005568 0 0 1 2.03752342e-38
-99.93921374 83.9233141 -259.0005568 0 0 1 2.019084294e-38
-99.93921374 83.28267811 -259.0005568 0 0 1 2.019084294e-38
-99.93921374 82.64204213 -259.0005568 0 0 1 2.03752342e-38
-99.93921374 82.00140614 -259.0005568 0 0 1 2.055962546e-38
-99.93921374 81.36077016 -259.0005568 0 0 1 2.028303857e-38
-99.93921374 80.72013417 -259.0005568 0 0 1 2.028303857e-38
-99.93921374 80.07949819 -259.0005568 0 0 1 2.03752342e-38
-99.93921374 79.4388622 -259.0005568 0 0 1 2.046742983e-38
-99.93921374 78.79822622 -259.0005568 0 0 1 2.03752342e-38
-99.93921374 78.15759023 -259.0005568 0 0 1 2.03752342e-38
-99.93921374 77.51695425 -259.0005568 0 0 1 2.046742983e-38
-99.93921374 76.87631826 -259.0005568 0 0 1 2.046742983e-38
-99.93921374 76.23568227 -259.0005568 0 0 1 2.046742983e-38
-99.93921374 75.59504629 -259.0005568 0 0 1 2.055962546e-38
-99.93921374 74.9544103 -259.0005568 0 0 1 2.065182109e-38
-99.93921374 74.31377432 -259.0005568 0 0 1 2.065182109e-38
-99.93921374 73.67313833 -259.0005568 0 0 1 2.083621235e-38
-99.93921374 73.03250235 -259.0005568 0 0 1 2.065182109e-38
-99.93921374 72.39186636 -259.0005568 0 0 1 2.055962546e-38
-99.93921374 71.75123038 -259.0005568 0 0 1 2.065182109e-38
-99.93921374 71.11059439 -259.0005568 0 0 1 2.102060361e-38
-99.93921374 70.4699584 -259.0005568 0 0 1 2.102060361e-38
-99.93921374 69.82932242 -259.0005568 0 0 1 2.092840798e-38
-99.93921374 69.18868643 -259.0005568 0 0 1 2.120499487e-38
-99.93921374 68.54805045 -259.0005568 0 0 1 2.148158176e-38
-99.93921374 67.90741446 -259.0005568 0 0 1 2.157377739e-38
-99.93921374 67.26677848 -259.0005568 0 0 1 2.148158176e-38
-99.93921374 66.62614249 -259.0005568 0 0 1 2.12971905e-38
-99.93921374 65.98550651 -259.0005568 0 0 1 2.120499487e-38
-99.93921374 65.34487052 -259.0005568 0 0 1 2.120499487e-38
-99.93921374 64.70423454 -259.0005568 0 0 1 2.12971905e-38
-99.93921374 64.06359855 -259.0005568 0 0 1 2.148158176e-38
-99.93921374 63.42296256 -259.0005568 0 0 1 2.148158176e-38
-99.93921374 62.78232658 -259.0005568 0 0 1 2.148158176e-38
-99.93921374 62.14169059 -259.0005568 0 0 1 2.157377739e-38
-99.93921374 61.50105461 -259.0005568 0 0 1 2.157377739e-38
-99.93921374 60.86041862 -259.0005568 0 0 1 2.148158176e-38
-99.93921374 60.21978264 -259.0005568 0 0 1 2.166597302e-38
-99.93921374 59.57914665 -259.0005568 0 0 1 2.212695117e-38
-99.93921374 58.93851067 -259.0005568 0 0 1 2.231134243e-38
-99.93921374 58.29787468 -259.0005568 0 0 1 2.22191468e-38
-99.93921374 57.65723869 -259.0005568 0 0 1 2.22191468e-38
-99.93921374 57.01660271 -259.0005568 0 0 1 2.194255991e-38
-99.93921374 56.37596672 -259.0005568 0 0 1 2.194255991e-38
-99.93921374 55.73533074 -259.0005568 0 0 1 2.185036428e-38
-99.93921374 55.09469475 -259.0005568 0 0 1 2.212695117e-38
-99.93921374 54.45405877 -259.0005568 0 0 1 2.231134243e-38
-99.93921374 53.81342278 -259.0005568 0 0 1 2.240353806e-38
-99.93921374 53.1727868 -259.0005568 0 0 1 2.22191468e-38
-99.93921374 52.53215081 -259.0005568 0 0 1 2.212695117e-38
-99.93921374 51.89151483 -259.0005568 0 0 1 2.194255991e-38
-99.93921374 51.25087884 -259.0005568 0 0 1 2.185036428e-38
-99.93921374 50.61024285 -259.0005568 0 0 1 2.22191468e-38
-99.93921374 49.96960687 -259.0005568 0 0 1 2.240353806e-38
-99.93921374 49.32897088 -259.0005568 0 0 1 2.240353806e-38
-99.93921374 48.6883349 -259.0005568 0 0 1 2.240353806e-38
-99.93921374 48.04769891 -259.0005568 0 0 1 2.231134243e-38
-99.93921374 47.40706293 -259.0005568 0 0 1 2.22191468e-38
-99.93921374 46.76642694 -259.0005568 0 0 1 2.231134243e-38
-99.93921374 46.12579096 -259.0005568 0 0 1 2.240353806e-38
-99.93921374 45.48515497 -259.0005568 0 0 1 2.240353806e-38
-99.93921374 44.84451898 -259.0005568 0 0 1 2.240353806e-38
-99.93921374 44.203883 -259.0005568 0 0 1 2.240353806e-38
-99.93921374 43.56324701 -259.0005568 0 0 1 2.240353806e-38
-99.93921374 42.92261103 -259.0005568 0 0 1 2.249573369e-38
-99.93921374 42.28197504 -259.0005568 0 0 1 2.258792932e-38
-99.93921374 41.64133906 -259.0005568 0 0 1 2.277232058e-38
-99.93921374 41.00070307 -259.0005568 0 0 1 2.277232058e-38
-99.93921374 40.36006709 -259.0005568 0 0 1 2.258792932e-38
-99.93921374 39.7194311 -259.0005568 0 0 1 2.258792932e-38
-99.93921374 39.07879512 -259.0005568 0 0 1 2.249573369e-38
-99.93921374 38.43815913 -259.0005568 0 0 1 2.249573369e-38
-99.93921374 37.79752314 -259.0005568 0 0 1 2.277232058e-38
-99.93921374 37.15688716 -259.0005568 0 0 1 2.286451621e-38
-99.93921374 36.51625117 -259.0005568 0 0 1 2.295671184e-38
-99.93921374 35.87561519 -259.0005568 0 0 1 2.286451621e-38
-99.93921374 35.2349792 -259.0005568 0 0 1 2.286451621e-38
-99.93921374 34.59434322 -259.0005568 0 0 1 2.286451621e-38
-99.93921374 33.95370723 -259.0005568 0 0 1 2.286451621e-38
-99.93921374 33.31307125 -259.0005568 0 0 1 2.323329873e-38
-99.93921374 32.67243526 -259.0005568 0 0 1 2.323329873e-38
-99.93921374 32.03179927 -259.0005568 0 0 1 2.323329873e-38
-99.93921374 31.39116329 -259.0005568 0 0 1 2.323329873e-38
-99.93921374 30.7505273 -259.0005568 0 0 1 2.323329873e-38
-99.93921374 30.10989132 -259.0005568 0 0 1 2.323329873e-38
-99.93921374 29.46925533 -259.0005568 0 0 1 2.323329873e-38
-99.93921374 28.82861935 -259.0005568 0 0 1 2.295671184e-38
-99.93921374 28.18798336 -259.0005568 0 0 1 2.295671184e-38
-99.93921374 27.54734738 -259.0005568 0 0 1 2.341768999e-38
-99.93921374 26.90671139 -259.0005568 0 0 1 2.341768999e-38
-99.93921374 26.26607541 -259.0005568 0 0 1 2.31411031e-38
-99.93921374 25.62543942 -259.0005568 0 0 1 2.350988562e-38
-99.93921374 24.98480343 -259.0005568 0 0 1 2.304890747e-38
-99.93921374 24.34416745 -259.0005568 0 0 1 2.350988562e-38
-99.93921374 23.70353146 -259.0005568 0 0 1 2.341768999e-38
-99.93921374 23.06289548 -259.0005568 0 0 1 2.323329873e-38
-99.93921374 22.42225949 -259.0005568 0 0 1 2.323329873e-38
-99.93921374 21.78162351 -259.0005568 0 0 1 2.323329873e-38
-99.93921374 21.14098752 -259.0005568 0 0 1 2.341768999e-38
-99.93921374 20.50035154 -259.0005568 0 0 1 2.341768999e-38
-99.93921374 19.85971555 -259.0005568 0 0 1 2.323329873e-38
-99.93921374 19.21907956 -259.0005568 0 0 1 2.323329873e-38
-99.93921374 18.57844358 -259.0005568 0 0 1 2.323329873e-38
-99.93921374 17.93780759 -259.0005568 0 0 1 2.341768999e-38
-99.93921374 17.29717161 -259.0005568 0 0 1 2.341768999e-38
-99.93921374 16.65653562 -259.0005568 0 0 1 2.341768999e-38
-99.93921374 16.01589964 -259.0005568 0 0 1 2.341768999e-38
-99.93921374 15.37526365 -259.0005568 0 0 1 2.31411031e-38
-99.93921374 14.73462767 -259.0005568 0 0 1 2.332549436e-38
-99.93921374 14.09399168 -259.0005568 0 0 1 2.341768999e-38
-99.93921374 13.4533557 -259.0005568 0 0 1 2.304890747e-38
-99.93921374 12.81271971 -259.0005568 0 0 1 2.31411031e-38
-99.93921374 12.17208372 -259.0005568 0 0 1 2.332549436e-38
-99.93921374 11.53144774 -259.0005568 0 0 1 2.341768999e-38
-99.93921374 10.89081175 -259.0005568 0 0 1 2.31411031e-38
-99.93921374 10.25017577 -259.0005568 0 0 1 2.350988562e-38
-99.93921374 9.609539782 -259.0005568 0 0 1 2.323329873e-38
-99.93921374 8.968903797 -259.0005568 0 0 1 2.341768999e-38
-99.93921374 8.328267811 -259.0005568 0 0 1 2.332549436e-38
-99.93921374 7.687631826 -259.0005568 0 0 1 2.332549436e-38
-99.93921374 7.04699584 -259.0005568 0 0 1 2.323329873e-38
-99.93921374 6.406359855 -259.0005568 0 0 1 2.323329873e-38
-99.93921374 5.765723869 -259.0005568 0 0 1 2.332549436e-38
-99.93921374 5.125087884 -259.0005568 0 0 1 2.350988562e-38
-99.93921374 4.484451898 -259.0005568 0 0 1 2.350988562e-38
-99.93921374 3.843815913 -259.0005568 0 0 1 2.341768999e-38
-99.93921374 3.203179927 -259.0005568 0 0 1 2.323329873e-38
-99.93921374 2.562543942 -259.0005568 0 0 1 2.323329873e-38
-99.93921374 1.921907956 -259.0005568 0 0 1 2.31411031e-38
-99.93921374 1.281271971 -259.0005568 0 0 1 2.323329873e-38
-99.93921374 0.6406359855 -259.0005568 0 0 1 2.323329873e-38
-99.93921374 0 -259.0005568 0 0 1 2.323329873e-38
-99.93921374 -0.6406359855 -259.0005568 0 0 1 2.323329873e-38
-99.93921374 -1.281271971 -259.0005568 0 0 1 2.323329873e-38
-99.93921374 -1.921907956 -259.0005568 0 0 1 2.323329873e-38
-99.93921374 -2.562543942 -259.0005568 0 0 1 2.323329873e-38
-99.93921374 -3.203179927 -259.0005568 0 0 1 2.31411031e-38
-99.93921374 -3.843815913 -259.0005568 0 0 1 2.31411031e-38
-99.93921374 -4.484451898 -259.0005568 0 0 1 2.323329873e-38
-99.93921374 -5.125087884 -259.0005568 0 0 1 2.341768999e-38
-99.93921374 -5.765723869 -259.0005568 0 0 1 2.341768999e-38
-99.93921374 -6.406359855 -259.0005568 0 0 1 2.341768999e-38
-99.93921374 -7.04699584 -259.0005568 0 0 1 2.323329873e-38
-99.93921374 -7.687631826 -259.0005568 0 0 1 2.323329873e-38
-99.93921374 -8.328267811 -259.0005568 0 0 1 2.323329873e-38
-99.93921374 -8.968903797 -259.0005568 0 0 1 2.323329873e-38
-99.93921374 -9.609539782 -259.0005568 0 0 1 2.341768999e-38
-99.93921374 -10.25017577 -259.0005568 0 0 1 2.341768999e-38
-99.93921374 -10.89081175 -259.0005568 0 0 1 2.341768999e-38
-99.93921374 -11.53144774 -259.0005568 0 0 1 2.341768999e-38
-99.93921374 -12.17208372 -259.0005568 0 0 1 2.341768999e-38
-99.93921374 -12.81271971 -259.0005568 0 0 1 2.341768999e-38
-99.93921374 -13.4533557 -259.0005568 0 0 1 2.341768999e-38
-99.93921374 -14.09399168 -259.0005568 0 0 1 2.341768999e-38
-99.93921374 -14.73462767 -259.0005568 0 0 1 2.323329873e-38
-99.93921374 -15.37526365 -259.0005568 0 0 1 2.323329873e-38
-99.93921374 -16.01589964 -259.0005568 0 0 1 2.323329873e-38
-99.93921374 -16.65653562 -259.0005568 0 0 1 2.323329873e-38
-99.93921374 -17.29717161 -259.0005568 0 0 1 2.323329873e-38
-99.93921374 -17.93780759 -259.0005568 0 0 1 2.341768999e-38
-99.93921374 -18.57844358 -259.0005568 0 0 1 2.323329873e-38
-99.93921374 -19.21907956 -259.0005568 0 0 1 2.304890747e-38
-99.93921374 -19.85971555 -259.0005568 0 0 1 2.286451621e-38
-99.93921374 -20.50035154 -259.0005568 0 0 1 2.304890747e-38
-99.93921374 -21.14098752 -259.0005568 0 0 1 2.350988562e-38
-99.93921374 -21.78162351 -259.0005568 0 0 1 2.31411031e-38
-99.93921374 -22.42225949 -259.0005568 0 0 1 2.31411031e-38
-99.93921374 -23.06289548 -259.0005568 0 0 1 2.341768999e-38
-99.93921374 -23.70353146 -259.0005568 0 0 1 2.31411031e-38
-99.93921374 -24.34416745 -259.0005568 0 0 1 2.332549436e-38
-99.93921374 -24.98480343 -259.0005568 0 0 1 2.332549436e-38
-99.93921374 -25.62543942 -259.0005568 0 0 1 2.341768999e-38
-99.93921374 -26.26607541 -259.0005568 0 0 1 2.341768999e-38
-99.93921374 -26.90671139 -259.0005568 0 0 1 2.323329873e-38
-99.93921374 -27.54734738 -259.0005568 0 0 1 2.31411031e-38
-99.93921374 -28.18798336 -259.0005568 0 0 1 2.323329873e-38
-99.93921374 -28.82861935 -259.0005568 0 0 1 2.323329873e-38
-99.93921374 -29.46925533 -259.0005568 0 0 1 2.31411031e-38
-99.93921374 -30.10989132 -259.0005568 0 0 1 2.304890747e-38
-99.93921374 -30.7505273 -259.0005568 0 0 1 2.304890747e-38
-99.93921374 -31.39116329 -259.0005568 0 0 1 2.304890747e-38
-99.93921374 -32.03179927 -259.0005568 0 0 1 2.323329873e-38
-99.93921374 -32.67243526 -259.0005568 0 0 1 2.323329873e-38
-99.93921374 -33.31307125 -259.0005568 0 0 1 2.332549436e-38
-99.93921374 -33.95370723 -259.0005568 0 0 1 2.304890747e-38
-99.93921374 -34.59434322 -259.0005568 0 0 1 2.295671184e-38
-99.93921374 -35.2349792 -259.0005568 0 0 1 2.295671184e-38
-99.93921374 -35.87561519 -259.0005568 0 0 1 2.295671184e-38
-99.93921374 -36.51625117 -259.0005568 0 0 1 2.295671184e-38
-99.93921374 -37.15688716 -259.0005568 0 0 1 2.295671184e-38
-99.93921374 -37.79752314 -259.0005568 0 0 1 2.249573369e-38
-99.93921374 -38.43815913 -259.0005568 0 0 1 2.240353806e-38
-99.93921374 -39.07879512 -259.0005568 0 0 1 2.31411031e-38
-99.93921374 -39.7194311 -259.0005568 0 0 1 2.295671184e-38
-99.93921374 -40.36006709 -259.0005568 0 0 1 2.286451621e-38
-99.93921374 -41.00070307 -259.0005568 0 0 1 2.295671184e-38
-99.93921374 -41.64133906 -259.0005568 0 0 1 2.286451621e-38
-99.93921374 -42.28197504 -259.0005568 0 0 1 2.277232058e-38
-99.93921374 -42.92261103 -259.0005568 0 0 1 2.258792932e-38
-99.93921374 -43.56324701 -259.0005568 0 0 1 2.249573369e-38
-99.93921374 -44.203883 -259.0005568 0 0 1 2.31411031e-38
-99.93921374 -44.84451898 -259.0005568 0 0 1 2.304890747e-38
-99.93921374 -45.48515497 -259.0005568 0 0 1 2.286451621e-38
-99.93921374 -46.12579096 -259.0005568 0 0 1 2.286451621e-38
-99.93921374 -46.76642694 -259.0005568 0 0 1 2.286451621e-38
-99.93921374 -47.40706293 -259.0005568 0 0 1 2.295671184e-38
-99.93921374 -48.04769891 -259.0005568 0 0 1 2.258792932e-38
-99.93921374 -48.6883349 -259.0005568 0 0 1 2.31411031e-38
-99.93921374 -49.32897088 -259.0005568 0 0 1 2.231134243e-38
-99.93921374 -49.96960687 -259.0005568 0 0 1 2.240353806e-38
-99.93921374 -50.61024285 -259.0005568 0 0 1 2.249573369e-38
-99.93921374 -51.25087884 -259.0005568 0 0 1 2.231134243e-38
-99.84679298 -51.84789205 -258.7828271 0 0 1 1.281519255e-38
-98.70947789 -51.94454729 -256.1034807 0 0 1 1.336836633e-38
-97.70964137 -52.09444021 -253.7480134 0 0 1 1.318397507e-38
-97.36627872 -52.55401374 -252.9391017 0 0 1 1.32761707e-38
-95.61206622 -52.3107767 -248.8064361 0 0 1 1.318397507e-38
-95.24252861 -52.74100834 -247.93586 0 0 1 1.336836633e-38
-94.04729395 -52.74833377 -245.1200636 0 0 1 1.32761707e-38
-93.22531247 -52.9331308 -243.1835966 0 0 1 1.346056196e-38
-92.21214946 -53.00919772 -240.7967341 0 0 1 1.32761707e-38
-91.2930868 -53.12280746 -238.6315582 0 0 1 1.299958381e-38
-91.08627616 -53.60339463 -238.1443428 0 0 1 1.318397507e-38
-89.44022758 -53.30999481 -234.2664954 0 0 1 1.318397507e-38
-89.09852018 -53.70427044 -233.4614832 0 0 1 1.373714885e-38
-88.16402197 -53.7698594 -231.2599434 0 0 1 1.373714885e-38
-87.41815305 -53.92897925 -229.5027863 0 0 1 1.364495322e-38
-86.55344667 -54.01292764 -227.4656658 0 0 1 1.346056196e-38
-85.69777306 -54.09190408 -225.4498251 0 0 1 1.32761707e-38
-84.88466801 -54.18521755 -223.5342696 0 0 1 1.373714885e-38
-83.9086079 -54.17504747 -221.2348161 0 0 1 1.336836633e-38
-83.69488402 -54.59772934 -220.7313142 0 0 1 1.373714885e-38
-82.82915317 -54.6341846 -218.6917801 0 0 1 1.346056196e-38
-82.13922328 -54.76504161 -217.0664072 0 0 1 1.373714885e-38
-81.3287289 -54.81549513 -215.1570021 0 0 1 1.364495322e-38
-80.55563979 -54.87917145 -213.3357182 0 0 1 1.364495322e-38
-80.40591458 -55.31524578 -212.9829877 0 0 1 1.373714885e-38
-79.1097009 -55.04141048 -209.9292997 0 0 1 1.382934448e-38
-78.9108871 -55.43670695 -209.4609237 0 0 1 1.373714885e-38
-78.03934102 -55.40631184 -207.4076898 0 0 1 1.336836633e-38
-77.4696889 -55.55751129 -206.0656735 0 0 1 1.364495322e-38
-76.72801412 -55.59180696 -204.3183972 0 0 1 1.373714885e-38
-76.03943212 -55.65180022 -202.6961997 0 0 1 1.429032263e-38
-75.83055969 -56.01684833 -202.2041271 0 0 1 1.382934448e-38
-74.67949659 -55.75905623 -199.4923924 0 0 1 1.373714885e-38
-74.52235488 -56.14811014 -199.1221897 0 0 1 1.401373574e-38
-73.6722248 -56.07094305 -197.1194088 0 0 1 1.382934448e-38
-73.17753741 -56.2241309 -195.9539983 0 0 1 1.410593137e-38
-72.55121827 -56.28180951 -194.4784829 0 0 1 1.373714885e-38
-71.89700465 -56.31300832 -192.9372522 0 0 1 1.410593137e-38
-71.38781895 -56.43715009 -191.7376858 0 0 1 1.392154011e-38
-70.64813741 -56.39418064 -189.9951053 0 0 1 1.401373574e-38
-70.55644076 -56.79947782 -189.7790815 0 0 1 1.392154011e-38
-69.81804478 -56.74395718 -188.0395296 0 0 1 1.382934448e-38
-69.34165178 -56.86761996 -186.9172181 0 0 1 1.401373574e-38
-68.77131814 -56.91785192 -185.5735962 0 0 1 1.401373574e-38
-68.17545096 -56.94283842 -184.1698211 0 0 1 1.429032263e-38
-67.66407434 -57.02291556 -182.9650933 0 0 1 1.401373574e-38
-66.99455529 -56.97999925 -181.3878052 0 0 1 1.410593137e-38
-66.91753607 -57.3712136 -181.2063593 0 0 1 1.401373574e-38
-66.27243567 -57.33449993 -179.686598 0 0 1 1.438251826e-38
-65.81884073 -57.43533989 -178.6179953 0 0 1 1.4198127e-38
-65.24093142 -57.43599673 -177.2565263 0 0 1 1.401373574e-38
-64.76141307 -57.50559957 -176.1268518 0 0 1 1.429032263e-38
-64.30337022 -57.58625779 -175.0477705 0 0 1 1.438251826e-38
-63.70917089 -57.55526102 -173.6479246 0 0 1 1.438251826e-38
-63.61290651 -57.90904961 -173.42114 0 0 1 1.447471389e-38
-62.99156468 -57.84559401 -171.9573503 0 0 1 1.410593137e-38
-62.59265798 -57.95247241 -171.017585 0 0 1 1.392154011e-38
-62.0097232 -57.90671537 -169.6442768 0 0 1 1.401373574e-38
-61.65361936 -58.03789279 -168.8053487 0 0 1 1.401373574e-38
-61.25407859 -58.12948395 -167.8640896 0 0 1 1.392154011e-38
-60.72589973 -58.11072542 -166.6197782 0 0 1 1.401373574e-38
-60.59201209 -58.41207155 -166.3043587 0 0 1 1.392154011e-38
-60.04553764 -58.36805397 -165.0169456 0 0 1 1.392154011e-38
-59.65859192 -58.45153044 -164.1053586 0 0 1 1.401373574e-38
-59.16465351 -58.44009473 -162.9417126 0 0 1 1.401373574e-38
-58.79874567 -58.53182688 -162.0796878 0 0 1 1.410593137e-38
-58.42546193 -58.61297645 -161.2002864 0 0 1 1.392154011e-38
-57.88599381 -58.54645438 -159.9293791 0 0 1 1.410593137e-38
-57.78334386 -58.85291267 -159.687551 0 0 1 1.410593137e-38
-57.3145386 -58.83812651 -158.583115 0 0 1 1.401373574e-38
-56.99661149 -58.95063512 -157.8341257 0 0 1 1.392154011e-38
-56.54920957 -58.94475852 -156.7801128 0 0 1 1.401373574e-38
-56.15727419 -58.98311943 -155.8567709 0 0 1 1.382934448e-38
-55.78370401 -59.03339326 -154.9766947 0 0 1 1.392154011e-38
-55.33000851 -59.00694311 -153.9078551 0 0 1 1.382934448e-38
-40.80417668 -46.18306152 -119.6871398 0 0 1 3.687825195e-40
-30.25491707 -36.82792856 -94.83464163 0 0 1 1.392154011e-38
-30.03205606 -36.85731433 -94.30961398 0 0 1 1.521227893e-38
-29.84094894 -36.91352348 -93.85939381 0 0 1 1.668740901e-38
-29.72619895 -37.03869693 -93.58905979 0 0 1 1.714838715e-38
-29.64428635 -37.1933403 -93.39608579 0 0 1 1.807034345e-38
-29.49872044 -37.28694007 -93.05315399 0 0 1 1.843912597e-38
-29.35141058 -37.37718691 -92.70611372 0 0 1 2.000645168e-38
-29.35141058 -37.60649481 -92.70611372 0 0 1 1.982206042e-38
-29.34569576 -37.83030798 -92.69265043 0 0 1 1.936108227e-38
-29.34085109 -38.05489627 -92.68123711 0 0 1 1.926888664e-38
-29.36051291 -38.30327633 -92.72755746 0 0 1 1.880790849e-38
-29.63062645 -38.79706946 -93.36390507 0 0 1 1.677960464e-38
-29.72195272 -39.11794197 -93.57905629 0 0 1 1.465910515e-38
-30.1001211 -39.7240307 -94.46996516 0 0 1 1.272299692e-38
-30.74883422 -40.60411062 -95.9982375 0 0 1 9.864932395e-39
-31.37195735 -41.46610266 -97.4662236 0 0 1 7.375650389e-39
-31.55388182 -41.89058321 -97.89481079 0 0 1 1.004932366e-38
-31.57731738 -42.15648733 -97.95002152 0 0 1 9.772736766e-39
-31.56796168 -42.38922545 -97.92798086 0 0 1 1.060249743e-38
-31.57845835 -42.64221482 -97.95270948 0 0 1 1.078688869e-38
-31.56983474 -42.87560564 -97.93239352 0 0 1 1.198543188e-38
-31.56837519 -43.11632679 -97.92895503 0 0 1 1.189323625e-38
-31.56338003 -43.35334306 -97.91718717 0 0 1 1.281519255e-38
-31.44014804 -43.46628334 -97.62687081 0 0 1 1.263080129e-38
-31.41143936 -43.67748307 -97.55923739 0 0 1 1.299958381e-38
-31.4016778 -43.90844253 -97.5362406 0 0 1 1.281519255e-38
-31.37790597 -44.12434803 -97.48023766 0 0 1 1.318397507e-38
-31.23381014 -44.21096488 -97.14076917 0 0 1 1.364495322e-38
-31.20512024 -44.42031332 -97.07318001 0 0 1 1.364495322e-38
-31.19055626 -44.64463786 -97.03886942 0 0 1 1.373714885e-38
-31.07132595 -44.75473952 -96.75798042 0 0 1 1.382934448e-38
-31.06498303 -44.98712094 -96.74303743 0 0 1 1.382934448e-38
-30.95756021 -45.10810534 -96.48996513 0 0 1 1.410593137e-38
-30.92107916 -45.30638201 -96.40402114 0 0 1 1.401373574e-38
-30.86759603 -45.48531036 -96.27802279 0 0 1 1.447471389e-38
-30.83144051 -45.68300186 -96.19284573 0 0 1 1.493569204e-38
-30.73954005 -45.81757863 -95.97634181 0 0 1 1.447471389e-38
-30.62941897 -45.93048644 -95.71691281 0 0 1 1.493569204e-38
-30.58673019 -46.11873423 -95.61634435 0 0 1 1.585764834e-38
-30.56397945 -46.3292563 -95.56274695 0 0 1 1.585764834e-38
-30.52314126 -46.51874964 -95.46653821 0 0 1 1.585764834e-38
-30.42361179 -46.64005008 -95.23206146 0 0 1 1.576545271e-38
-30.30046484 -46.73280351 -94.94194544 0 0 1 1.60420396e-38
-30.26387116 -46.9249941 -94.85573613 0 0 1 1.631862649e-38
-30.24733743 -47.14025371 -94.81678511 0 0 1 1.659521338e-38
-30.20385621 -47.32360098 -94.71434977 0 0 1 1.650301775e-38
-30.01346212 -47.33265559 -94.26580941 0 0 1 1.60420396e-38
-29.98073236 -47.52691403 -94.18870293 0 0 1 1.650301775e-38
-29.95087448 -47.72422169 -94.11836217 0 0 1 1.724058278e-38
-29.91528239 -47.91429803 -94.03451246 0 0 1 1.714838715e-38
-29.80371327 -48.01231402 -93.77167207 0 0 1 1.724058278e-38
-29.67773146 -48.09156078 -93.47487753 0 0 1 1.705619152e-38
-29.63877833 -48.27532992 -93.38310972 0 0 1 1.724058278e-38
-29.61843317 -48.48141581 -93.33517951 0 0 1 1.724058278e-38
-29.39186002 -48.43369991 -92.80140661 0 0 1 1.724058278e-38
-29.35671929 -48.61983196 -92.71862025 0 0 1 1.631862649e-38
-29.32110255 -48.80496364 -92.63471247 0 0 1 1.659521338e-38
-29.30963581 -49.0197957 -92.60769852 0 0 1 1.594984397e-38
-29.2875059 -49.22113483 -92.55556372 0 0 1 1.51200833e-38
-29.04828254 -49.14896667 -91.99198879 0 0 1 1.465910515e-38
-35.52926934 -57.57170852 -107.2602369 0 0 1 5.531737792e-40
-38.62602499 -61.77090524 -114.555736 0 0 1 1.32761707e-38
-38.58333769 -61.99978248 -114.455171 0 0 1 1.281519255e-38
-38.31202527 -61.9350693 -113.815999 0 0 1 1.263080129e-38
-38.14607955 -62.0028862 -113.4250554 0 0 1 1.299958381e-38
-37.94743201 -62.02646488 -112.9570711 0 0 1 1.23542144e-38
-37.72577915 -62.01783391 -112.4348897 0 0 1 1.309177944e-38
-37.52694686 -62.03640716 -111.9664702 0 0 1 1.299958381e-38
-37.29394023 -62.00785661 -111.417541 0 0 1 1.32761707e-38
-37.23260485 -62.20267186 -111.2730439 0 0 1 1.281519255e-38
-36.8879441 -62.02199778 -110.461074 0 0 1 1.309177944e-38
-36.82628324 -62.21329995 -110.3158101 0 0 1 1.299958381e-38
-36.4811849 -62.02565744 -109.5028094 0 0 1 1.244641003e-38
-36.42237029 -62.21768543 -109.3642509 0 0 1 1.309177944e-38
-36.25795004 -62.26687438 -108.976901 0 0 1 1.253860566e-38
-36.02415607 -62.22036034 -108.426117 0 0 1 1.281519255e-38
-35.9627961 -62.40524105 -108.2815619 0 0 1 1.23542144e-38
-35.63415538 -62.22495304 -107.5073329 0 0 1 1.23542144e-38
-35.59344032 -62.43511692 -107.4114142 0 0 1 1.272299692e-38
-35.37610297 -62.40191262 -106.8993995 0 0 1 1.207762751e-38
-35.18844005 -62.40715703 -106.4572934 0 0 1 1.281519255e-38
-35.02675584 -62.44624344 -106.0763893 0 0 1 1.244641003e-38
-34.81598309 -62.41508006 -105.5798398 0 0 1 1.272299692e-38
-34.77101165 -62.61333738 -105.4738937 0 0 1 1.263080129e-38
-34.44550063 -62.41709448 -104.7070378 0 0 1 1.318397507e-38
-34.39810749 -62.60925378 -104.5953866 0 0 1 1.263080129e-38
-34.19954551 -62.58680483 -104.1276039 0 0 1 1.198543188e-38
-34.0363859 -62.61237801 -103.7432239 0 0 1 1.272299692e-38
-33.98157277 -62.79073161 -103.6140923 0 0 1 1.263080129e-38
-33.69117221 -62.63073482 -102.9299514 0 0 1 1.263080129e-38
-33.61241582 -62.77197611 -102.744413 0 0 1 1.244641003e-38
-33.33569149 -62.62620784 -102.0924913 0 0 1 1.189323625e-38
-33.28299397 -62.80227043 -101.9683438 0 0 1 1.23542144e-38
-32.9962997 -62.63683334 -101.2929344 0 0 1 1.180104062e-38
-32.91929812 -62.77475638 -101.11153 0 0 1 1.23542144e-38
-32.87126656 -62.95432306 -100.9983748 0 0 1 1.189323625e-38
-32.59460932 -62.79627227 -100.3466111 0 0 1 1.244641003e-38
-32.5500771 -62.97856652 -100.2416998 0 0 1 1.207762751e-38
-32.26298593 -62.79991573 -99.56535538 0 0 1 1.170884499e-38
-32.21450539 -62.97386863 -99.45114239 0 0 1 1.23542144e-38
-31.9316075 -62.79619634 -98.78467674 0 0 1 1.152445373e-38
-31.88436971 -62.96952159 -98.67339148 0 0 1 1.198543188e-38
-31.82910028 -63.13017463 -98.54318485 0 0 1 1.198543188e-38
-31.55280815 -62.95531919 -97.89228139 0 0 1 1.23542144e-38
-31.51183248 -63.13513534 -97.79574876 0 0 1 1.161664936e-38
-31.2331145 -62.95150751 -97.13913035 0 0 1 1.207762751e-38
-31.17399684 -63.10117971 -96.99985786 0 0 1 1.170884499e-38
-31.04294493 -63.13950097 -96.69111891 0 0 1 1.115567121e-38
-30.87234412 -63.11522336 -96.2892086 0 0 1 1.170884499e-38
-30.82661352 -63.28251017 -96.18147405 0 0 1 1.134006247e-38
-30.55725001 -63.10132297 -95.54689339 0 0 1 1.180104062e-38
-30.51319643 -63.26885968 -95.44310966 0 0 1 1.14322581e-38
-30.279093 -63.13797749 -94.89159654 0 0 1 1.087908432e-38
-30.20088468 -63.24964291 -94.70734928 0 0 1 1.14322581e-38
-29.9797808 -63.13474095 -94.18646118 0 0 1 1.115567121e-38
-29.92925254 -63.28762349 -94.06742405 0 0 1 1.161664936e-38
-29.88889419 -63.45609566 -93.97234575 0 0 1 1.115567121e-38
-29.6314952 -63.27755992 -93.36595174 0 0 1 1.152445373e-38
-29.58595411 -63.43552143 -93.25866365 0 0 1 1.087908432e-38
-29.34423322 -63.2774357 -92.68920491 0 0 1 1.170884499e-38
-29.28460109 -63.41044776 -92.54872041 0 0 1 1.115567121e-38
-29.06696618 -63.28680715 -92.03600471 0 0 1 1.032591054e-38
-29.00944292 -63.42093712 -91.9004884 0 0 1 1.106347558e-38
-28.86993761 -63.42063385 -91.57183448 0 0 1 1.041810617e-38
-28.72373054 -63.40773101 -91.2273922 0 0 1 1.106347558e-38
-28.68698545 -63.57299935 -91.1408262 0 0 1 1.069469306e-38
-28.46455682 -63.43163003 -90.61681717 0 0 1 1.170884499e-38
-28.41463755 -63.57315766 -90.49921474 0 0 1 1.069469306e-38
-28.2023766 -63.44449501 -89.9991593 0 0 1 1.023371491e-38
-28.14859176 -63.57747082 -89.87245014 0 0 1 1.078688869e-38
-28.1109323 -63.73678793 -89.78373002 0 0 1 1.014151928e-38
-27.88901409 -63.58643778 -89.26092348 0 0 1 1.097127995e-38
-27.72391299 -63.52918451 -88.87196966 0 0 1 1.014151928e-38
-27.61630205 -63.56715875 -88.61845417 0 0 1 1.060249743e-38
-27.56987914 -63.70763605 -88.50908866 0 0 1 1.023371491e-38
-27.364721 -63.57747833 -88.02576636 0 0 1 9.772736766e-39
-27.29914025 -63.68323916 -87.8712678 0 0 1 1.023371491e-38
-27.1814793 -63.6990123 -87.59407598 0 0 1 9.864932395e-39
-27.05293364 -63.69470315 -87.29124138 0 0 1 1.014151928e-38
-26.92018876 -63.68165288 -86.97851403 0 0 1 9.957128025e-39
-26.81857369 -63.72093109 -86.73912394 0 0 1 9.311758616e-39
-26.7647541 -63.84202193 -86.61233293 0 0 1 1.014151928e-38
-26.57127594 -63.7191545 -86.15652694 0 0 1 9.403954246e-39
-26.51897561 -63.84083295 -86.03331509 0 0 1 9.772736766e-39
-26.39493534 -63.83607129 -85.74109452 0 0 1 9.219562986e-39
-26.1653608 -63.64414381 -85.2002508 0 0 1 9.864932395e-39
-26.22591186 -63.96179719 -85.34290016 0 0 1 9.311758616e-39
-26.03835322 -63.84063888 -84.90103969 0 0 1 9.864932395e-39
-26.00135953 -63.98489243 -84.81388802 0 0 1 9.496149876e-39
-25.79461578 -63.82603042 -84.32683027 0 0 1 9.957128025e-39
-25.7557511 -63.96508542 -84.23527081 0 0 1 9.588345506e-39
-25.64409469 -63.97304289 -83.9722248 0 0 1 8.942976097e-39
-25.52943069 -63.97428362 -83.70209335 0 0 1 9.588345506e-39
-25.49404988 -64.11740728 -83.61874138 0 0 1 8.942976097e-39
-25.28371434 -63.94305618 -83.1232219 0 0 1 9.772736766e-39
-25.15782177 -63.91977794 -82.82663759 0 0 1 8.942976097e-39
-25.06467519 -63.95475818 -82.607198 0 0 1 8.666389207e-39
-25.01957998 -64.07657417 -82.50096035 0 0 1 8.850780467e-39
-24.91179627 -64.08279592 -82.24703783 0 0 1 8.297606688e-39
-24.79112557 -64.06403154 -81.96275548 0 0 1 8.942976097e-39
-24.6722307 -64.04714117 -81.68265672 0 0 1 8.481997947e-39
-24.57991846 -64.07812396 -81.46518272 0 0 1 8.758584837e-39
-24.56217538 -64.24664538 -81.42338264 0 0 1 8.574193577e-39
-48.90258037 112.5565094 -142.2034084 0 0 1 9.588345506e-39
-48.94766721 112.2906572 -142.3122576 0 0 1 9.588345506e-39
-49.27140247 112.5534058 -143.0938237 0 0 1 9.127367356e-39
-49.57165518 112.7678361 -143.8186979 0 0 1 1.004932366e-38
-49.53604258 112.3449004 -143.7327214 0 0 1 8.942976097e-39
-49.69687183 112.291904 -144.1209976 0 0 1 9.496149876e-39
-50.01220827 112.5266976 -144.8822871 0 0 1 9.403954246e-39
-49.97777753 112.1039781 -144.799164 0 0 1 9.219562986e-39
-50.25320043 112.2589644 -145.4640936 0 0 1 1.023371491e-38
-50.35065543 112.0801485 -145.6993708 0 0 1 9.957128025e-39
-50.40996337 111.8295517 -145.8425529 0 0 1 9.864932395e-39
-50.69967323 112.0033855 -146.5419743 0 0 1 9.864932395e-39
-50.70889928 111.6578839 -146.564248 0 0 1 9.864932395e-39
-51.01168225 111.850439 -147.2952307 0 0 1 1.069469306e-38
-51.43825457 112.2655771 -148.3250674 0 0 1 1.069469306e-38
-51.45843742 111.9354556 -148.3737931 0 0 1 1.060249743e-38
-51.69135224 111.9912755 -148.9360993 0 0 1 9.864932395e-39
-51.80546738 111.8293604 -149.2115976 0 0 1 1.069469306e-38
-51.86413631 111.5660905 -149.3532369 0 0 1 1.069469306e-38
-51.92942664 111.3140213 -149.5108617 0 0 1 1.060249743e-38
-52.22969144 111.4821203 -150.2357651 0 0 1 1.041810617e-38
-52.56073274 111.7015843 -151.0349695 0 0 1 1.124786684e-38
-52.62095664 111.4351699 -151.1803628 0 0 1 1.106347558e-38
-52.67729086 111.1611378 -151.3163656 0 0 1 1.069469306e-38
-53.00775581 111.3709797 -152.1141786 0 0 1 1.05103018e-38
-53.25930476 111.4378561 -152.7214715 0 0 1 1.05103018e-38
-53.38040233 111.2727035 -153.0138269 0 0 1 1.134006247e-38
-53.41350235 110.9521387 -153.0937374 0 0 1 1.115567121e-38
-53.49418668 110.7141509 -153.2885266 0 0 1 1.078688869e-38
-54.09131625 111.3726357 -154.7301249 0 0 1 1.069469306e-38
-54.12845231 111.0542221 -154.8197793 0 0 1 1.14322581e-38
-54.22369095 110.8356369 -155.0497057 0 0 1 1.14322581e-38
-54.26450001 110.5223062 -155.1482275 0 0 1 1.124786684e-38
-54.91261279 111.2493045 -156.7129102 0 0 1 1.087908432e-38
-54.94083281 110.9098721 -156.7810393 0 0 1 1.161664936e-38
-55.05530091 110.7168873 -157.0573898 0 0 1 1.14322581e-38
-55.09793038 110.4007031 -157.1603064 0 0 1 1.152445373e-38
-55.15664675 110.1111957 -157.3020603 0 0 1 1.14322581e-38
-55.85145419 110.892148 -158.9794738 0 0 1 1.198543188e-38
-55.87601862 110.5401326 -159.0387776 0 0 1 1.152445373e-38
-55.96713068 110.2990935 -159.2587416 0 0 1 1.134006247e-38
-56.29626707 110.453529 -160.0533471 0 0 1 1.134006247e-38
-56.58918989 110.5439159 -160.7605253 0 0 1 1.115567121e-38
-56.67065303 110.2810254 -160.9571948 0 0 1 1.198543188e-38
-56.7643571 110.0373369 -161.1834164 0 0 1 1.207762751e-38
-56.83663513 109.7573439 -161.357911 0 0 1 1.189323625e-38
-56.79603393 109.2917946 -161.259891 0 0 1 1.152445373e-38
-57.53902081 110.1041591 -163.05362 0 0 1 1.134006247e-38
-57.64309155 109.869885 -163.304869 0 0 1 1.23542144e-38
-57.70998967 109.574212 -163.4663754 0 0 1 1.198543188e-38
-58.12552407 109.8398517 -164.4695642 0 0 1 1.189323625e-38
-58.45406583 109.9607886 -165.2627341 0 0 1 1.180104062e-38
-58.51901889 109.6559615 -165.4195447 0 0 1 1.244641003e-38
-58.61272944 109.3962097 -165.645782 0 0 1 1.23542144e-38
-58.62654312 109.0084281 -165.6791311 0 0 1 1.207762751e-38
-59.34043824 109.7283311 -167.4026264 0 0 1 1.207762751e-38
-59.43467398 109.4628232 -167.6301316 0 0 1 1.263080129e-38
-59.52881637 109.1960434 -167.8574115 0 0 1 1.23542144e-38
-59.63477274 108.9466226 -168.1132128 0 0 1 1.253860566e-38
-59.96298565 109.0423392 -168.9055888 0 0 1 1.263080129e-38
-60.41751472 109.3302544 -170.0029191 0 0 1 1.272299692e-38
-60.50397148 109.04347 -170.2116441 0 0 1 1.299958381e-38
-60.54068562 108.6790166 -170.3002799 0 0 1 1.244641003e-38
-60.93430952 108.8618691 -171.2505721 0 0 1 1.253860566e-38
-61.39096538 109.1363783 -172.3530369 0 0 1 1.309177944e-38
-61.44500166 108.7923477 -172.483492 0 0 1 1.253860566e-38
-61.52347977 108.4847444 -172.6729549 0 0 1 1.263080129e-38
-61.64992254 108.2486687 -172.9782147 0 0 1 1.253860566e-38
-62.39183983 108.9372663 -174.7693615 0 0 1 1.272299692e-38
-62.45974816 108.6067604 -174.9333067 0 0 1 1.309177944e-38
-62.54871347 108.3068791 -175.148088 0 0 1 1.299958381e-38
-62.60389526 107.9557021 -175.2813086 0 0 1 1.309177944e-38
-63.04969736 108.1823521 -176.3575701 0 0 1 1.299958381e-38
-63.46277862 108.3554155 -177.3548365 0 0 1 1.272299692e-38
-63.57818923 108.0862676 -177.6334623 0 0 1 1.318397507e-38
-63.60713944 107.6892475 -177.7033543 0 0 1 1.281519255e-38
-64.08572852 107.9470305 -178.8587706 0 0 1 1.263080129e-38
-64.4624153 108.0512288 -179.7681729 0 0 1 1.272299692e-38
-64.60734386 107.8160117 -180.1180614 0 0 1 1.318397507e-38
-64.71814247 107.5299458 -180.3855529 0 0 1 1.318397507e-38
-64.76946786 107.1573214 -180.5094634 0 0 1 1.318397507e-38
-65.27441229 107.4314882 -181.728507 0 0 1 1.281519255e-38
-65.70360542 107.5919647 -182.7646709 0 0 1 1.32761707e-38
-65.8100424 107.2905331 -183.0216325 0 0 1 1.336836633e-38
-65.87785974 106.9334043 -183.1853581 0 0 1 1.318397507e-38
-66.32195509 107.1035009 -184.2574991 0 0 1 1.32761707e-38
-66.85193836 107.3883083 -185.5369919 0 0 1 1.373714885e-38
-66.93480985 107.0446887 -185.7370614 0 0 1 1.336836633e-38
-67.02586761 106.7114206 -185.9568942 0 0 1 1.336836633e-38
-67.0833834 106.3307963 -186.0957496 0 0 1 1.318397507e-38
-67.9785055 107.099899 -188.2567656 0 0 1 1.318397507e-38
-68.09148538 106.7887452 -188.5295231 0 0 1 1.336836633e-38
-68.17428415 106.4351503 -188.729417 0 0 1 1.346056196e-38
-68.26482621 106.0910628 -188.9480049 0 0 1 1.364495322e-38
-68.79569633 106.3401466 -190.2296387 0 0 1 1.336836633e-38
-69.27322599 106.5112221 -191.3824973 0 0 1 1.346056196e-38
-69.32764839 106.1106356 -191.5138846 0 0 1 1.401373574e-38
-69.49149989 105.8551208 -191.9094571 0 0 1 1.346056196e-38
-69.92275447 105.9521405 -192.9505978 0 0 1 1.32761707e-38
-70.56569122 106.3233689 -194.5027844 0 0 1 1.373714885e-38
-70.60894766 105.8990953 -194.6072147 0 0 1 1.4198127e-38
-70.6979396 105.5341165 -194.8220602 0 0 1 1.382934448e-38
-70.7806993 105.1599618 -195.0218598 0 0 1 1.382934448e-38
-71.43914721 105.5308093 -196.6114937 0 0 1 1.346056196e-38
-71.95599029 105.7111436 -197.8592633 0 0 1 1.373714885e-38
-71.95903386 105.2256477 -197.8666111 0 0 1 1.410593137e-38
-72.1573836 104.9896991 -198.3454697 0 0 1 1.364495322e-38
-72.71993521 105.2146238 -199.7035895 0 0 1 1.382934448e-38
-73.22444312 105.3593485 -200.9215793 0 0 1 1.4198127e-38
-73.32635911 104.9907841 -201.1676263 0 0 1 1.410593137e-38
-73.4895145 104.6977981 -201.5615182 0 0 1 1.401373574e-38
-73.49372472 104.2044917 -201.5716826 0 0 1 1.364495322e-38
-74.63503926 105.1235098 -204.3270596 0 0 1 1.401373574e-38
-74.65303236 104.6403498 -204.3704988 0 0 1 1.401373574e-38
-74.72981292 104.2292915 -204.5558635 0 0 1 1.373714885e-38
-75.26547395 104.3790618 -205.8490636 0 0 1 1.373714885e-38
-75.56753163 104.2378606 -206.5782954 0 0 1 1.373714885e-38
-76.05352989 104.3160287 -207.7515989 0 0 1 1.382934448e-38
-76.16407085 103.9354968 -208.0184684 0 0 1 1.382934448e-38
-76.30167067 103.5861229 -208.3506638 0 0 1 1.392154011e-38
-77.0116944 103.918756 -210.0648127 0 0 1 1.392154011e-38
-77.58098024 104.0756653 -211.4391903 0 0 1 1.401373574e-38
-77.680301 103.6701054 -211.6789718 0 0 1 1.401373574e-38
-77.73657187 103.2127156 -211.8148217 0 0 1 1.392154011e-38
-78.4779105 103.5564721 -213.6045715 0 0 1 1.438251826e-38
-79.00701434 103.6442378 -214.8819412 0 0 1 1.392154011e-38
-79.20854953 103.3462031 -215.3684901 0 0 1 1.401373574e-38
-79.25903923 102.8716805 -215.4903831 0 0 1 1.401373574e-38
-79.86723393 103.0359835 -216.958695 0 0 1 1.392154011e-38
-80.62036658 103.3583338 -218.776918 0 0 1 1.410593137e-38
-80.71505956 102.9246286 -219.0055271 0 0 1 1.429032263e-38
-80.79689438 102.4752805 -219.2030938 0 0 1 1.410593137e-38
-80.97482056 102.132832 -219.6326456 0 0 1 1.392154011e-38
-81.58979117 102.2762964 -221.117316 0 0 1 1.447471389e-38
-82.33811105 102.560528 -222.92392 0 0 1 1.4198127e-38
-82.44262952 102.1245925 -223.1762499 0 0 1 1.410593137e-38
-82.56711465 101.7093473 -223.4767836 0 0 1 1.429032263e-38
-83.19458261 101.8422709 -224.9916253 0 0 1 1.410593137e-38
-83.63794573 101.7676118 -226.0619985 0 0 1 1.410593137e-38
-84.1606808 101.7734466 -227.3239926 0 0 1 1.465910515e-38
-84.26369715 101.3218923 -227.5726961 0 0 1 1.438251826e-38
-85.13422174 101.6895015 -229.6743284 0 0 1 1.429032263e-38
-85.30123234 101.298925 -230.0775276 0 0 1 1.4198127e-38
-86.00727777 101.4760934 -231.7820721 0 0 1 1.429032263e-38
-86.11350489 101.0144259 -232.038527 0 0 1 1.429032263e-38
-86.18656203 100.5168265 -232.2149026 0 0 1 1.429032263e-38
-87.04287186 100.8321915 -234.2822174 0 0 1 1.410593137e-38
-87.80413617 101.0391403 -236.120072 0 0 1 1.475130078e-38
-87.83218414 100.4839072 -236.1877858 0 0 1 1.438251826e-38
-87.99649087 100.0674776 -236.5844573 0 0 1 1.438251826e-38
-88.71691122 100.2136308 -238.3237059 0 0 1 1.429032263e-38
-89.70226968 100.6185529 -240.7025717 0 0 1 1.401373574e-38
-89.87137515 100.1928267 -241.1108284 0 0 1 1.447471389e-38
-90.00437066 99.72907017 -241.4319079 0 0 1 1.429032263e-38
-90.64026693 99.76223856 -242.9670974 0 0 1 1.438251826e-38
-91.14146289 99.65509162 -244.1770914 0 0 1 1.429032263e-38
-91.71362712 99.61146039 -245.5584181 0 0 1 1.410593137e-38
-91.88775077 99.1735586 -245.9787898 0 0 1 1.465910515e-38
-92.0519241 98.7239514 -246.3751392 0 0 1 1.447471389e-38
-93.04649159 99.07073926 -248.7762375 0 0 1 1.447471389e-38
-93.73289158 99.11121141 -250.4333537 0 0 1 1.447471389e-38
-93.94906624 98.69701873 -250.9552455 0 0 1 1.456690952e-38
-94.09217106 98.21130263 -251.3007311 0 0 1 1.438251826e-38
-95.00706392 98.44745318 -253.5094779 0 0 1 1.447471389e-38
-95.40490726 98.19101435 -254.4699566 0 0 1 1.410593137e-38
-96.10686658 98.21131034 -256.1646364 0 0 1 1.456690952e-38
-96.20700722 97.66978003 -256.4063973 0 0 1 1.475130078e-38
-97.10716237 97.85798344 -258.579564 0 0 1 1.447471389e-38
-97.47704245 97.55411932 -259.4725335 0 0 1 1.447471389e-38
-98.44280362 97.78314514 -261.8040872 0 0 1 1.60420396e-38
-97.49814166 96.28941169 -259.5234715 0 0 1 1.917669101e-38
-97.49814166 95.64748228 -259.5234715 0 0 1 1.963766916e-38
-97.43553591 94.95022267 -259.3723279 0 0 1 1.963766916e-38
-97.52357048 94.3859453 -259.5848621 0 0 1 1.972986479e-38
-97.39602871 93.63266741 -259.2769491 0 0 1 1.972986479e-38
-97.39371329 92.98934291 -259.2713591 0 0 1 1.982206042e-38
-97.44044769 92.38822408 -259.384186 0 0 1 1.991425605e-38
-97.4002835 91.71234178 -259.287221 0 0 1 1.991425605e-38
-97.46041436 91.12198522 -259.4323898 0 0 1 2.000645168e-38
-97.44380469 90.46629596 -259.3922905 0 0 1 2.000645168e-38
-97.41087262 89.79715931 -259.3127854 0 0 1 2.019084294e-38
-97.5108281 89.23871847 -259.5540993 0 0 1 2.028303857e-38
-97.45209747 88.54831501 -259.412311 0 0 1 2.028303857e-38
-97.46041436 87.91346461 -259.4323898 0 0 1 2.028303857e-38
-97.43553591 87.25155597 -259.3723279 0 0 1 2.03752342e-38
-97.39862079 86.580241 -259.2832069 0 0 1 2.046742983e-38
-97.44794807 85.97837689 -259.4022935 0 0 1 2.03752342e-38
-97.47712092 85.35991672 -259.472723 0 0 1 2.03752342e-38
